# .PCD v0.7 - Point Cloud Data file format
VERSION 0.7
FIELDS x y z
SIZE 4 4 4
TYPE F F F
COUNT 1 1 1
WIDTH 1324
HEIGHT 1
VIEWPOINT 0 0 0 1 0 0 0
POINTS 1324
DATA ascii
0.0089223059 0.11999999 0.023251081
0.010928443 0.12 0.022948248
0.012889465 0.12 0.022969741
0.01505047 0.12 0.023249937
0.0167838 0.11993942 0.023070596
0.019008843 0.11910962 0.022992918
0.020109538 0.11946357 0.022118635
-0.018388208 0.12 0.022056043
-0.016290491 0.12 0.022485159
-0.014989404 0.12 0.023113046
-0.012799205 0.12 0.02303898
-0.010718895 0.12 0.02291562
-0.0086980872 0.12 0.022772241
-0.0073193964 0.12 0.022370817
-0.0050965468 0.12 0.022888459
-0.0027034048 0.12 0.022475895
-0.0010322739 0.12 0.023226829
0.00056152773 0.12 0.022327043
0.0027540119 0.12 0.023277111
0.0047692829 0.12 0.022568582
0.0066784429 0.12 0.022735422
0.0087548262 0.12 0.023848765
0.011316595 0.12 0.022448599
0.012982036 0.12 0.023232281
0.014835035 0.12 0.022967031
0.01683116 0.12 0.022744121
0.01906928 0.12 0.022485172
-0.016878445 0.00073938596 0.02470015
-0.015195969 0.00050005858 0.025187844
-0.013302276 0 0.025144299
-0.011162887 0 0.024872161
-0.008759358 0 0.025186162
-0.0072139679 0 0.024795055
-0.0047230343 0 0.024960669
-0.0027872415 0 0.025090408
-0.0013605882 0 0.024789035
0.0010671077 0 0.025032373
0.0029239031 0 0.02489486
0.0045648119 0 0.025138527
0.0069480799 0 0.02532048
0.0087279556 0 0.024989676
0.010928816 0 0.025098622
0.013142995 0 0.024821183
0.01508682 0.00045209672 0.02517348
0.016790507 0.00091672986 0.024683025
-0.016805969 0.0031204096 0.024791032
-0.015392504 0.0031394095 0.025625238
0.015198889 0.0027688881 0.025728727
0.016892713 0.0029768592 0.024733441
-0.017244721 0.00516188 0.024462946
-0.015496567 0.0049538072 0.025569614
0.015361781 0.0050748372 0.025641659
0.016914101 0.0053116032 0.024726737
-0.016808907 0.0072325817 0.024764653
-0.015409003 0.0072064558 0.025616422
0.015546167 0.0074011646 0.025543105
0.016943172 0.0071117524 0.024692012
-0.016947646 0.0089825802 0.024692036
-0.01536541 0.0088514155 0.02563972
0.015392466 0.0089944191 0.025625259
0.016884193 0.008559919 0.02470924
-0.016951367 0.011140804 0.024680588
-0.015330767 0.011127205 0.025658237
0.015381295 0.01098974 0.025631228
0.017038317 0.011103231 0.02462223
-0.016897971 0.013031515 0.02472157
-0.015213775 0.012797364 0.025720773
0.015499805 0.012771636 0.025567884
0.016981611 0.012769441 0.024658974
-0.016898887 0.015185555 0.024713956
-0.015304521 0.015148365 0.025672268
0.015416806 0.014750126 0.02561225
0.016728759 0.015033927 0.02483419
-0.016928924 0.017153207 0.024723845
-0.015235628 0.016957439 0.025709093
0.015430236 0.016816575 0.025605073
0.017059095 0.016896423 0.024601014
-0.016891785 0.019081898 0.024728697
-0.015391092 0.018812383 0.025625994
0.015543185 0.018664097 0.025544697
0.016729405 0.019043922 0.024852863
-0.01707661 0.021163538 0.024590163
-0.015443223 0.021168943 0.025598129
0.015315235 0.021334156 0.02566654
0.017050512 0.02089433 0.024594048
-0.017038569 0.023088071 0.024618179
-0.015345742 0.022835005 0.025650233
0.015542483 0.023008179 0.025545072
0.016673349 0.023055902 0.024871595
-0.017121105 0.024744168 0.024547506
-0.015219309 0.024910579 0.025717812
0.015368555 0.025043063 0.025638042
0.016980572 0.02513379 0.024657862
-0.016992001 0.026964365 0.02464878
-0.015318412 0.026985135 0.02566484
0.015322396 0.027077502 0.025662713
0.017103132 0.026931394 0.024567749
-0.01705562 0.028864469 0.024592169
-0.01521658 0.028844088 0.025719272
0.015454056 0.029134478 0.025592336
0.017049683 0.028910173 0.02462527
-0.016994521 0.030910134 0.024648169
-0.015361849 0.030892426 0.02564162
0.015374452 0.031240257 0.025634887
0.01702648 0.03117126 0.024627343
-0.016980182 0.033130467 0.024654675
-0.01545006 0.033076238 0.025594475
0.0153119 0.032953184 0.025668323
0.017101228 0.032918945 0.024565408
-0.016951963 0.034733117 0.024677588
-0.015227603 0.034928661 0.025713379
0.015516014 0.034955177 0.02555922
0.016770639 0.035145588 0.024806989
-0.016784409 0.036972132 0.024790123
-0.015155735 0.036956131 0.025751794
0.015695741 0.037081894 0.025463155
0.01692239 0.037347149 0.024702353
-0.016850822 0.038892888 0.024753101
-0.015184748 0.038837578 0.025736285
0.015341389 0.038738031 0.025652561
0.016951296 0.039304592 0.024674198
-0.016949346 0.041068751 0.024694007
-0.015303784 0.040903192 0.025672661
0.015251597 0.040917542 0.025700552
0.017140852 0.04111319 0.024532476
-0.016984966 0.042951215 0.024646761
-0.015171562 0.042725347 0.025743332
0.015478 0.043083064 0.02557954
0.016868984 0.043190125 0.024740612
-0.017045937 0.045042396 0.024613449
-0.015123439 0.045317505 0.025769057
0.015348879 0.045061767 0.025648555
0.016833756 0.045024276 0.024762847
-0.017111294 0.04699045 0.024553796
-0.015374463 0.046918359 0.025634881
0.01528188 0.047064688 0.025684366
0.01680203 0.046898499 0.024792036
-0.01671233 0.048781443 0.024865907
-0.015239053 0.048580829 0.02570726
0.015348903 0.049233828 0.025648542
0.016587522 0.048859734 0.024933346
-0.016706053 0.051064357 0.024852084
-0.015569441 0.050734494 0.025530662
0.015393321 0.050892517 0.0256248
0.016929207 0.051027041 0.024691232
-0.016996829 0.05307721 0.024640286
-0.015449004 0.053109679 0.025595039
0.015268084 0.052680608 0.025691742
0.017023424 0.053009789 0.024639474
-0.016885143 0.05497257 0.024722513
-0.015709406 0.054771774 0.025455849
0.015346602 0.054854285 0.025649775
0.01712323 0.055433247 0.024551226
-0.016838444 0.057173297 0.024763556
-0.015368927 0.057035767 0.025637839
0.015509673 0.056926727 0.025562607
0.016688084 0.057165056 0.024868252
-0.016704148 0.059064943 0.024864595
-0.015310302 0.059190813 0.025669176
0.015333883 0.058793023 0.025656572
0.016848855 0.059191544 0.024750588
-0.01697235 0.060974598 0.024671245
-0.015475856 0.061012644 0.025580684
0.015157855 0.061105769 0.025750663
0.016850246 0.060816001 0.02472879
-0.017061692 0.063275039 0.024605479
-0.015329647 0.062961243 0.025658835
0.015370928 0.062784225 0.025636772
0.017102031 0.06312672 0.024567127
-0.016783036 0.064796351 0.024807379
-0.01536106 0.06522619 0.025642045
0.015219733 0.064962134 0.025717584
0.016806355 0.064796068 0.024771793
-0.017023038 0.067153692 0.024625069
-0.015220131 0.067037895 0.025717374
0.015356234 0.06709493 0.025644626
0.016897896 0.066905975 0.024702776
-0.016754759 0.068739578 0.024822721
-0.015449861 0.06927719 0.025594581
0.015252306 0.069117762 0.025700178
0.016942943 0.069091193 0.024688482
-0.016864546 0.070999421 0.024745101
-0.015403586 0.071372025 0.025619317
0.015293747 0.071093298 0.025678027
0.017177956 0.071025394 0.024513036
-0.017052019 0.072828844 0.024598541
-0.015426478 0.072874099 0.025607079
0.01539579 0.072802894 0.025623484
0.017176781 0.072940961 0.024515919
-0.016684206 0.07496082 0.024875287
-0.015649347 0.075053848 0.025487952
0.014992309 0.074960485 0.02583915
0.016899919 0.075049073 0.024719821
-0.017110186 0.076972567 0.024553478
-0.015341901 0.076893158 0.025652286
0.015179301 0.077029556 0.025739199
0.017058283 0.077149428 0.0246037
-0.016783427 0.078941733 0.024799168
-0.015325002 0.078897171 0.025661319
0.015313344 0.078628853 0.025667552
0.016924379 0.079500705 0.024696944
-0.017071478 0.080914453 0.024578363
-0.015443762 0.080970369 0.025597841
0.015222027 0.080826782 0.025716363
0.016803481 0.080954373 0.024782946
-0.016878635 0.083077498 0.024732927
-0.015397201 0.082797989 0.025622725
0.015452977 0.082668401 0.025592914
0.017074389 0.083228268 0.02458101
-0.01685589 0.08490032 0.024764879
-0.015168041 0.08485882 0.025745215
0.015412599 0.085196443 0.025614496
0.016856007 0.084981784 0.024749447
-0.016944773 0.087128662 0.024684908
-0.015309392 0.086982653 0.02566966
0.015220207 0.087311074 0.025717333
0.017002756 0.086809538 0.024636548
-0.016972098 0.088930339 0.024668591
-0.015554124 0.089017943 0.025538851
0.015485966 0.088611647 0.025575282
0.016953304 0.089170523 0.024670495
-0.016997334 0.090944812 0.02463961
-0.015207097 0.090969115 0.025724342
0.015254067 0.091055714 0.025699232
0.017127832 0.090995677 0.024544293
-0.0169024 0.093116388 0.024728315
-0.015174167 0.092762336 0.02574194
0.0154257 0.09309613 0.025607493
0.017036859 0.093090311 0.024623265
-0.017018313 0.094917588 0.024628697
-0.015306348 0.095119715 0.02567129
0.015405852 0.094862938 0.025618104
0.016747467 0.094825976 0.024842948
-0.016853556 0.09710639 0.02475661
-0.015300551 0.097247079 0.025674388
0.015459429 0.09704601 0.025589468
0.016870638 0.097113207 0.024730107
-0.016775971 0.098957896 0.024813203
-0.01550597 0.098902822 0.025564589
0.015247756 0.099181853 0.025702609
0.017013503 0.098982163 0.024642216
-0.017021555 0.10125809 0.024609769
-0.015441105 0.10088734 0.02559926
0.015106306 0.10130532 0.025778215
0.016989276 0.10107112 0.024654754
-0.016861711 0.10294341 0.024758477
-0.01550992 0.10257167 0.025562475
0.015455833 0.10301375 0.025591385
0.016940581 0.10283718 0.024681488
-0.016851941 0.10498331 0.024757657
-0.015269769 0.10503373 0.025690842
0.015228147 0.10523532 0.025713088
0.016806245 0.10513903 0.024791166
-0.01684943 0.10706534 0.024757871
-0.015430171 0.10705666 0.025605105
0.015385896 0.10699005 0.025628766
0.016863562 0.10700186 0.024752637
-0.017173728 0.10905938 0.02450587
-0.015232516 0.10914926 0.025710752
0.015204703 0.1094256 0.025725624
0.017216714 0.10873508 0.024466904
-0.016922204 0.11087787 0.02470601
-0.01527774 0.1112904 0.025686579
0.015366485 0.11105683 0.025639147
0.016888944 0.11109782 0.024718203
-0.016982231 0.11323205 0.02465255
-0.015445037 0.1130808 0.025597161
0.015173178 0.11281896 0.025742471
0.017214388 0.11303223 0.024484295
-0.016957119 0.11489901 0.024681214
-0.015299831 0.11503428 0.02567477
0.015348867 0.11499847 0.025648564
0.016916864 0.1152801 0.024707394
-0.016958192 0.11696186 0.024676004
-0.015265828 0.11720634 0.025692951
0.015269918 0.11710507 0.02569076
0.01681901 0.11699606 0.024768505
-0.016994083 0.1190889 0.024589833
-0.015112405 0.11964953 0.024869252
-0.013047124 0.12 0.025054974
-0.010886176 0.11999999 0.024543304
-0.0090169534 0.12 0.025261793
-0.0071436842 0.12 0.024945231
-0.00491784 0.11999999 0.024881864
-0.0031067729 0.11999999 0.025327394
-0.00090059184 0.12 0.025217371
0.0010540201 0.12 0.025234204
0.0030714539 0.12 0.024859229
0.0047001438 0.12 0.025037263
0.0065331929 0.12 0.025170237
0.0090372721 0.12 0.024921268
0.010926551 0.12 0.024845058
0.012956621 0.12 0.025119061
0.014946373 0.11971291 0.025111901
0.017081872 0.11904397 0.024535764
-0.017371139 0.12 0.024086948
-0.015002443 0.12 0.024802461
-0.013174734 0.12 0.025024544
-0.011648398 0.12 0.02546481
-0.0089443475 0.12 0.024939671
-0.0065084379 0.12 0.024741778
-0.0051457984 0.12 0.025009964
-0.0031295873 0.12 0.024533281
-0.0011929283 0.12 0.025793912
0.0013004983 0.12 0.024652852
0.0027036038 0.12 0.024862444
0.0050613424 0.12 0.02509295
0.0068640234 0.12 0.025466971
0.0089248288 0.12 0.025079628
0.011306638 0.12 0.025214082
-0.014403993 0.0011245796 0.026153615
-0.013082131 0.00054257212 0.026691752
-0.011177288 0.00055783585 0.027479796
-0.0087869829 0 0.027160602
-0.0071908617 0 0.027029982
-0.0048125419 0 0.026770866
-0.0031478112 0 0.026920129
-0.0011859037 0 0.026967771
0.0013024922 0 0.026927374
0.0027428137 0 0.026705634
0.0047613098 0 0.02677205
0.0067182402 0 0.026771329
0.0089441212 0 0.026902452
0.011229585 0.00042410614 0.027370835
0.013008594 0.00049229275 0.026735045
0.014245481 0.0010214389 0.026196949
-0.014456344 0.0032749723 0.026125632
-0.012938635 0.0030190409 0.026936872
-0.01130687 0.002581297 0.02774664
0.011269021 0.0033697949 0.027762117
0.013300918 0.0031028178 0.026743226
0.014211902 0.0032280851 0.026256289
-0.01438325 0.0050995355 0.026164699
-0.012989284 0.0049804663 0.026909798
-0.011180668 0.0049061356 0.027793232
0.01120284 0.0050551021 0.027787598
0.012863769 0.0050407373 0.026976889
0.014234419 0.0047277305 0.026244253
-0.01432361 0.0073224916 0.026196579
-0.013092954 0.0073976684 0.026854385
-0.011289078 0.0074358345 0.027742749
0.011335358 0.0072024786 0.027750999
0.01291277 0.006822288 0.026950696
0.014509941 0.0068455981 0.026096981
-0.014526729 0.0086633442 0.026088009
-0.012972252 0.0087805372 0.026918901
-0.011185543 0.0092447894 0.027781785
0.011319236 0.0089528244 0.027755219
0.012915215 0.009048244 0.026949389
0.014435939 0.0090837618 0.026136538
-0.014328646 0.01052868 0.026193887
-0.012985787 0.011175028 0.026911667
-0.011502231 0.011185167 0.027683333
0.011301666 0.010942283 0.027746791
0.013157927 0.010880851 0.026819658
0.014368985 0.011315758 0.026172325
-0.014521559 0.012856652 0.026090771
-0.01285711 0.012902791 0.026980447
-0.011194251 0.012735547 0.027770711
0.011293406 0.012974915 0.027746802
0.012777646 0.012747899 0.027022921
0.01444554 0.012973391 0.026131405
-0.01444034 0.014530311 0.026134184
-0.013082811 0.014803736 0.026859807
-0.011178448 0.015104493 0.027791161
0.011356927 0.015068077 0.027734511
0.012980582 0.01514582 0.026914449
0.014300697 0.015285643 0.026208825
-0.014417954 0.016386559 0.026146149
-0.01319639 0.016912624 0.026799096
-0.011324973 0.016967522 0.027741533
0.011351529 0.017145449 0.027733242
0.013029264 0.016874567 0.026888426
0.014338472 0.01663419 0.026188634
-0.014270269 0.018803788 0.026225092
-0.012793821 0.018959392 0.027014276
-0.011470365 0.019129962 0.027688926
0.011332123 0.019076517 0.02773324
0.012947836 0.018990351 0.026931953
0.014371096 0.018711554 0.026171198
-0.014522882 0.021187454 0.026090065
-0.01318519 0.021217657 0.02680508
-0.011191736 0.021024104 0.027785171
0.011409975 0.021320213 0.027705429
0.012876215 0.020873317 0.026970234
0.01439468 0.021339716 0.026158592
-0.014398446 0.023285098 0.026156578
-0.013088085 0.022836868 0.026856989
-0.011386132 0.022900529 0.027703989
0.011051482 0.023302032 0.027845737
0.013124982 0.023009932 0.026837265
0.014296159 0.022728434 0.026211252
-0.014432219 0.025018662 0.026138525
-0.013188928 0.025012789 0.026803084
-0.011494978 0.025075056 0.027679322
0.011376851 0.02520238 0.027707718
0.013088434 0.025156027 0.026856804
0.014265952 0.024745619 0.026227398
-0.014385702 0.026713997 0.02616339
-0.013159046 0.026797999 0.026819058
-0.011373266 0.026774164 0.027722072
0.011109177 0.026911 0.02781274
0.012845702 0.027099093 0.026986547
0.014392775 0.026991738 0.026159611
-0.014264832 0.029208766 0.026227996
-0.012919944 0.029017422 0.026946859
-0.011301211 0.029394804 0.027747603
0.011438146 0.028987473 0.027694894
0.013084115 0.029164406 0.02685911
0.014372179 0.028715923 0.026170621
-0.014275114 0.031375479 0.026222503
-0.012996627 0.031027509 0.026905872
-0.011158067 0.031129071 0.027805047
0.011261106 0.030485004 0.027765339
0.013115141 0.031046851 0.026842525
0.014312337 0.031177551 0.026202604
-0.014380764 0.033117302 0.026166027
-0.012870669 0.032984916 0.026973201
-0.011344286 0.033098582 0.027742159
0.011210578 0.03327851 0.02777594
0.012940957 0.032922912 0.026935631
0.014325884 0.033102654 0.026195364
-0.014414428 0.035064228 0.026148034
-0.012961766 0.035043646 0.026924508
-0.011330645 0.035038885 0.027735652
0.0114625 0.034902222 0.027687436
0.013176117 0.034776352 0.026809935
0.014438057 0.035101261 0.026135404
-0.014209181 0.037100326 0.026257744
-0.013148502 0.036903046 0.026824694
-0.011337754 0.036973398 0.027733058
0.01129852 0.036978744 0.027749721
0.012976244 0.036822438 0.026916768
0.014492312 0.037338693 0.026106404
-0.014291706 0.039063051 0.026213631
-0.013003672 0.03872256 0.026902104
-0.01131187 0.039066341 0.027739538
0.011359409 0.038792893 0.027730538
0.013024821 0.039093833 0.026890803
0.014270427 0.038694531 0.026225008
-0.014340065 0.040979512 0.026187785
-0.013111357 0.040915988 0.026844546
-0.011765657 0.041231982 0.027559254
0.011247314 0.041448437 0.027768053
0.0131447 0.040985022 0.026826724
0.014334046 0.040964972 0.026190998
-0.014521047 0.043620355 0.026091047
-0.013147207 0.043196648 0.026825383
-0.011208582 0.042877164 0.027780745
0.011160076 0.042865999 0.027805487
0.012976953 0.042890903 0.026916388
0.014276743 0.042601336 0.026221633
-0.014192943 0.044717919 0.026266424
-0.012997619 0.045052122 0.026905343
-0.011304588 0.045149382 0.027746951
0.010818961 0.045437619 0.027916918
0.012877027 0.04519888 0.026969803
0.014211453 0.044804331 0.026256528
-0.014389584 0.047050796 0.026161313
-0.012810913 0.046790857 0.027005142
-0.011295218 0.047174107 0.027742136
0.011179942 0.046906114 0.027795875
0.013045192 0.046963252 0.026879914
0.014326868 0.047341805 0.026194841
-0.01446923 0.04915408 0.026118742
-0.013231922 0.049077138 0.026780104
-0.011220139 0.049087144 0.027773384
0.011056891 0.049022034 0.027837038
0.013132195 0.048779309 0.026833409
0.014393428 0.049331009 0.02615926
-0.014556443 0.05151755 0.026072126
-0.013059474 0.050870359 0.026872277
-0.011250991 0.050971664 0.027756907
0.01132828 0.050791502 0.027740184
0.013114024 0.050952911 0.026843123
0.014334236 0.051434122 0.026190901
-0.014385427 0.05326394 0.026163535
-0.012987928 0.052643884 0.026910521
-0.011092273 0.053160809 0.027831288
0.011358671 0.053270102 0.027731942
0.012778266 0.053138755 0.027022589
0.014663088 0.053479549 0.026015123
-0.014324117 0.055083942 0.026196308
-0.013158434 0.055032883 0.026819382
-0.011402557 0.05493778 0.027716208
0.011167427 0.054793727 0.027790777
0.012675044 0.055169389 0.027077762
0.014365077 0.055117022 0.026174415
-0.014234193 0.057205938 0.026244376
-0.012983466 0.057022706 0.026912909
-0.01149952 0.057403073 0.027676212
0.011367283 0.057099883 0.027728505
0.013016107 0.057081725 0.026895458
0.014503231 0.056901634 0.026100568
-0.01436166 0.059209283 0.02617624
-0.012796422 0.059103768 0.027012885
-0.011241129 0.059109394 0.027769549
0.01104819 0.059117109 0.027834211
0.012854646 0.058946814 0.026981767
0.014418744 0.058819473 0.02614573
-0.014616626 0.061061006 0.026039958
-0.013058135 0.061194837 0.026872994
-0.011317035 0.061053433 0.027740827
0.011348853 0.060779002 0.027731538
0.013030074 0.060859758 0.026887996
0.014264792 0.061251473 0.02622802
-0.014425099 0.063014232 0.026142335
-0.012858828 0.063098162 0.02697953
-0.011125953 0.062670402 0.027823748
0.011646073 0.063027754 0.027621262
0.012852213 0.06311135 0.026983066
0.014236643 0.062590346 0.026243063
-0.014397669 0.065227069 0.026156994
-0.012948511 0.064989828 0.026931589
-0.011225478 0.064903192 0.027787311
0.011319568 0.064914227 0.027742917
0.013066199 0.06480702 0.026868684
0.014408575 0.064927921 0.026151165
-0.014429067 0.067112222 0.026140211
-0.012826446 0.066925623 0.026996834
-0.011401856 0.066922478 0.027712833
0.011356371 0.067137994 0.027729541
0.01295653 0.066952772 0.026927305
0.014098906 0.066985719 0.026316686
-0.014273004 0.068661623 0.026223628
-0.013079021 0.06893567 0.02686183
-0.011470977 0.068995126 0.02767968
0.01126337 0.068980485 0.027758069
0.012963402 0.068896361 0.026923632
0.014361259 0.068417542 0.026176454
-0.014387786 0.070555009 0.026162274
-0.013011247 0.071193188 0.026898058
-0.011276722 0.070853598 0.027767772
0.011297126 0.071169175 0.027746992
0.013126399 0.071187437 0.026836507
0.014235605 0.071050011 0.02624362
-0.014332199 0.072889566 0.026191987
-0.013045606 0.072910935 0.026879692
-0.011272836 0.0728902 0.02776373
0.011302182 0.073011532 0.027744574
0.013009292 0.073100321 0.026899103
0.014321563 0.073157623 0.026197674
-0.014362412 0.075163342 0.026175842
-0.012985492 0.074882522 0.026911821
-0.011365679 0.075138144 0.027719719
0.011057816 0.074696548 0.027832596
0.012793544 0.074887186 0.027014425
0.01452778 0.074470676 0.026087444
-0.014343139 0.077099949 0.026186138
-0.012840587 0.076963462 0.026989277
-0.011304019 0.076848231 0.027758127
0.011078275 0.076941773 0.027821438
0.013329554 0.076901011 0.02672792
0.014347889 0.076671585 0.0261836
-0.01429688 0.078934893 0.026210867
-0.012957542 0.078842156 0.026926765
-0.011024131 0.078855194 0.027853731
0.011296793 0.078586228 0.027736304
0.013216626 0.079066485 0.026788279
0.014290931 0.078715615 0.026214048
-0.014450445 0.081068844 0.026128784
-0.012705358 0.081132941 0.027061563
-0.011404458 0.081236206 0.027711753
0.011221766 0.081108369 0.027774081
0.013018955 0.081153467 0.026893938
0.014232837 0.081196353 0.026245099
-0.014338584 0.083306745 0.026188575
-0.013344994 0.082829461 0.026719669
-0.011347105 0.083075598 0.027726993
0.011167705 0.083286181 0.027798496
0.012764018 0.082739465 0.027030207
0.014291869 0.082978942 0.026213545
-0.014365026 0.084917136 0.026174439
-0.013307836 0.084796101 0.026739527
-0.011378606 0.08548899 0.027714677
0.011206167 0.084962875 0.027786272
0.013186311 0.084990226 0.026804484
0.014256317 0.085002072 0.026232548
-0.014253475 0.086922228 0.026234066
-0.013207414 0.086759575 0.026793206
-0.01126784 0.086950935 0.027753944
0.011325632 0.087031573 0.027738346
0.01297911 0.086854681 0.026915237
0.014451765 0.087386653 0.02612808
-0.014296919 0.089281894 0.026210846
-0.012969254 0.088917352 0.026920505
-0.011146424 0.088908449 0.027808022
0.011396635 0.08914803 0.027717121
0.013056871 0.088920467 0.026873676
0.014319668 0.089347526 0.026198687
-0.014330153 0.091005959 0.02619308
-0.012994899 0.090966597 0.026906798
-0.011277546 0.090766333 0.027760774
0.011238812 0.090895258 0.027769871
0.012957444 0.090976313 0.026926816
0.014287141 0.091172516 0.026216073
-0.014306615 0.093130194 0.026205665
-0.013110354 0.092893735 0.026845081
-0.011312697 0.092818759 0.027745496
0.011178773 0.093156226 0.02779435
0.01303326 0.093201675 0.026886292
0.014257434 0.093336716 0.026231954
-0.014180449 0.09501636 0.026273102
-0.013204993 0.094935462 0.026794495
-0.011266678 0.095264457 0.027757704
0.01143629 0.094984472 0.027693788
0.012924157 0.094833158 0.026944607
0.014410455 0.095203064 0.02615016
-0.014493451 0.096393466 0.026105797
-0.012712765 0.096943766 0.027057603
-0.011524398 0.097089119 0.027667992
0.011198765 0.097079203 0.027790876
0.012784574 0.097100854 0.027019219
0.014298221 0.096972011 0.02621015
-0.014459856 0.099299289 0.026123753
-0.012944258 0.099080406 0.026933864
-0.011322668 0.099013455 0.02774219
0.011432258 0.098984875 0.027703125
0.012675262 0.099119432 0.027077647
0.014334152 0.099000163 0.026190942
-0.014376978 0.10131755 0.026168054
-0.013090647 0.10105795 0.026855616
-0.011329665 0.1010687 0.027749812
0.011069674 0.10100713 0.027825812
0.013013343 0.10099122 0.026896939
0.01436602 0.1012313 0.02617391
-0.014438063 0.10305732 0.026135402
-0.013232606 0.10296812 0.026779735
-0.011416636 0.1031097 0.027688637
0.011394981 0.10247281 0.027707798
0.012981297 0.10306089 0.026914066
0.014354516 0.10313503 0.026180061
-0.014387123 0.10509767 0.02616263
-0.012984622 0.1050869 0.026912287
-0.011161233 0.1051121 0.027805209
0.011253547 0.10511147 0.027743611
0.012958707 0.10517745 0.026926141
0.014240353 0.10477347 0.026241081
-0.014250972 0.10708668 0.026235403
-0.012968728 0.1069983 0.026920786
-0.01141719 0.10723967 0.027700333
0.011229184 0.10717321 0.027780712
0.013041111 0.10709067 0.026882097
0.014326813 0.1073297 0.026194867
-0.014350171 0.10872576 0.026182381
-0.013016462 0.10905312 0.026895273
-0.011063479 0.10907181 0.02784271
0.011129522 0.10895368 0.027809007
0.012992632 0.10884555 0.026908007
0.014369494 0.1092988 0.026172053
-0.014249722 0.11124443 0.026236076
-0.013169936 0.11077471 0.026813237
-0.011310165 0.11106075 0.02774244
0.011344309 0.11080037 0.027732711
0.012900556 0.11110467 0.026957227
0.014303731 0.11079679 0.026207205
-0.014434669 0.11268356 0.026137218
-0.013041437 0.11304765 0.026881924
-0.011319528 0.11311463 0.027745079
0.011203393 0.11277863 0.027778327
0.012786078 0.11283959 0.027018409
0.014238118 0.11299946 0.026242277
-0.014220541 0.11511777 0.026251668
-0.013208972 0.11499754 0.026792372
-0.0110776 0.11458265 0.027824204
0.011462023 0.11510359 0.027689096
0.01289225 0.1150614 0.026961662
0.014356812 0.1147428 0.026178831
-0.014326599 0.11669102 0.02619498
-0.012850426 0.11713398 0.026984021
-0.01135569 0.1172329 0.027717687
0.011253784 0.11701644 0.027760714
0.012970969 0.11688896 0.026919588
0.014340224 0.116853 0.026187697
-0.01428813 0.11879808 0.026215544
-0.012813928 0.11936395 0.026776444
-0.011258919 0.11947853 0.027387809
-0.0087711969 0.12 0.026852667
-0.0071529583 0.12 0.027180247
-0.0049544894 0.12 0.026986338
-0.0028321783 0.12 0.026915031
-0.00087157992 0.11999999 0.026987895
0.0011099965 0.12 0.026846506
0.0029109272 0.11999999 0.026980376
0.0047226562 0.11999999 0.027210867
0.0072564012 0.11999999 0.027275821
0.0088891191 0.12 0.026627401
0.011009498 0.11952069 0.027306935
0.013033437 0.11947659 0.026780594
0.014480345 0.11884717 0.0261128
-0.014005781 0.12 0.02600076
-0.013356389 0.12 0.026168566
-0.011352707 0.12 0.026317909
-0.0089049609 0.12 0.02665641
-0.0070903003 0.12 0.027098343
-0.0044867201 0.12 0.027335867
-0.003046724 0.12 0.026736876
-0.00089188787 0.12 0.027041482
0.00045615504 0.12 0.027662177
0.0030045749 0.12 0.027232412
0.0054316944 0.12 0.026740521
0.0062173 0.12 0.026633848
0.0090649799 0.12 0.026655152
0.011165839 0.12 0.026877135
-0.010307678 0.0011125967 0.028072083
-0.0089968992 0.00086967519 0.028400009
-0.0071009374 0.0007457459 0.028920306
-0.0051119449 0.00065825909 0.029239701
-0.0031940946 0.00043125407 0.029269401
-0.0010617614 0.00034989294 0.029283926
0.0010722941 0.00033486151 0.029283531
0.0029295443 0.00041595357 0.0292011
0.0050687394 0.00056277268 0.029118098
0.0069046514 0.00059363554 0.028883262
0.0089023598 0.0009936674 0.028477542
0.010315494 0.0012917132 0.02806971
-0.010269233 0.0031362434 0.028083751
-0.0090856832 0.0028633492 0.028442936
-0.006829639 0.003281777 0.029127607
-0.0046519893 0.0031328066 0.029542195
-0.0030725987 0.0031848052 0.029697619
-0.0011249837 0.0032315792 0.029889289
0.0010545499 0.0029222926 0.029896222
0.0032986398 0.0028486231 0.029675379
0.004620546 0.0028140715 0.029545289
0.0066502974 0.003053148 0.029182034
0.009008673 0.0027497218 0.028466308
0.010175984 0.0034053146 0.028112048
-0.010193793 0.0049707056 0.028106645
-0.0090151569 0.0047946391 0.02846434
-0.0070068925 0.0050095604 0.029073812
-0.0049154353 0.0049459953 0.029516269
-0.0027976066 0.00521232 0.029724685
-0.001071436 0.0048836106 0.029894561
0.0010695478 0.0052295788 0.029894743
0.0028567871 0.0049684593 0.029718861
0.0050075445 0.005214022 0.029507201
0.0068730935 0.0046943165 0.029114418
0.009329007 0.0052247113 0.028369093
0.010346306 0.0052634664 0.02806036
-0.010248841 0.0065467358 0.028089939
-0.0089161079 0.0069722189 0.028494401
-0.0071737287 0.0068710251 0.029023184
-0.0052226637 0.0068613673 0.029481266
-0.0030852805 0.0068558557 0.029696371
-0.00096693262 0.0074554654 0.029904842
0.00088774884 0.0070760157 0.029912634
0.0029872272 0.0070921793 0.029706025
0.0051520215 0.0068882336 0.029489405
0.0069391546 0.0068641054 0.029094376
0.0089468108 0.007182701 0.028485084
-0.010353317 0.008263031 0.028058233
-0.0090599125 0.0090276673 0.028450759
-0.0070212204 0.0089984918 0.029069463
-0.0050393245 0.0089874826 0.029501462
-0.0029751002 0.0088294502 0.029707218
-0.0011024097 0.0092521813 0.029891511
0.0012086821 0.0089782281 0.029881053
0.0029244896 0.0091940407 0.0297122
0.0049026185 0.0091148792 0.029517239
0.006667763 0.0090561369 0.029176731
0.0090587782 0.0087481681 0.028451106
0.010109787 0.0091119837 0.028132141
-0.010243456 0.010818605 0.028091574
-0.0088629946 0.011035602 0.028510518
-0.0070791868 0.011095708 0.029051876
-0.0050009978 0.011093044 0.029505916
-0.0026891802 0.010732729 0.029735357
-0.00059387495 0.011252722 0.029941555
0.00096712983 0.011195672 0.029904826
0.0028503104 0.011176685 0.029719498
0.0050334386 0.010910953 0.029503245
0.007122905 0.010854836 0.029038606
0.0091884742 0.010998124 0.028411742
0.010353846 0.011014828 0.028058071
-0.010396746 0.013415761 0.028045053
-0.0089052906 0.012803469 0.028497683
-0.0067242705 0.013240852 0.029159589
-0.0050810878 0.013056977 0.029497795
-0.00289786 0.012795909 0.029714817
-0.00077897642 0.012754195 0.02992334
0.0011448546 0.01298588 0.029887334
0.0028919249 0.0131531 0.029715402
0.0050804089 0.012836304 0.029500032
0.0068871537 0.012983913 0.029110154
0.0091140112 0.013220279 0.028434338
0.010241684 0.012665584 0.028092112
-0.010444053 0.014692403 0.028030694
-0.0090294424 0.014881673 0.028460011
-0.0070028328 0.015035636 0.029075045
-0.005278952 0.015021462 0.029477604
-0.0031550205 0.015098074 0.029689513
-0.00082893384 0.014893569 0.029918423
0.00077576621 0.014923955 0.029923653
0.0031384877 0.014748833 0.029691137
0.0047966121 0.014794087 0.029527962
0.0074380087 0.014707997 0.028942978
0.0090592317 0.015030031 0.028450966
0.01027004 0.014009585 0.028083503
-0.010193554 0.017013572 0.028106716
-0.0087797893 0.016943462 0.028535767
-0.0071435021 0.016917033 0.029032353
-0.0049813013 0.017217886 0.029509259
-0.0029114115 0.017071316 0.029713482
-0.00062297325 0.017287977 0.029938692
0.00094425038 0.01724067 0.029907074
0.0031282762 0.017100669 0.029692147
0.0047162501 0.017055091 0.029535869
0.007093281 0.017118597 0.029047599
0.0090431273 0.017049981 0.028455853
0.010298955 0.016766695 0.028074732
-0.010304727 0.018253699 0.028072977
-0.0091632251 0.018958338 0.028419405
-0.0069642938 0.019004906 0.029086741
-0.0051347613 0.019071709 0.029492859
-0.0029077169 0.019089218 0.029713849
-0.0011049139 0.018929722 0.029891264
0.0012157217 0.019094242 0.029880358
0.0027161592 0.01890037 0.0297327
0.0048847822 0.018902993 0.029517364
0.0068529095 0.019019149 0.029120548
0.0087079294 0.019026728 0.028557582
0.010148079 0.018682592 0.028120518
-0.010320203 0.021135105 0.02806828
-0.0090846531 0.021030292 0.028443249
-0.0071270461 0.020894879 0.029037351
-0.0047505875 0.020766733 0.029531585
-0.0032445134 0.021271242 0.029680708
-0.0009478642 0.0212679 0.02990672
0.0009470518 0.020834213 0.0299068
0.0027862403 0.02097963 0.029725805
0.0050430191 0.021179788 0.029503195
0.0071790027 0.020986851 0.029021582
0.0091447979 0.020979999 0.028424995
0.010289687 0.020265026 0.028077545
-0.010195299 0.02259743 0.028106188
-0.00862714 0.02310781 0.028582094
-0.0070113093 0.023077173 0.029072475
-0.0050196648 0.022965569 0.029506011
-0.0031126637 0.022951342 0.02969368
-0.0010360241 0.023184419 0.02989804
0.00059922907 0.022963213 0.029941032
0.0028312304 0.023083612 0.029721377
0.0050306763 0.022947114 0.029504927
0.0068053077 0.023122327 0.029134993
0.0092460457 0.023013802 0.028394267
0.010110901 0.023090685 0.0281318
-0.010167954 0.024725668 0.028114488
-0.0088812504 0.025041912 0.028504977
-0.0069382582 0.025129614 0.029094644
-0.0050689518 0.024998136 0.029501155
-0.0031336823 0.025001684 0.029691612
-0.001307966 0.024956133 0.029871281
0.00077894109 0.02502224 0.02992334
0.0029713698 0.02492512 0.029707583
0.0049246419 0.025130205 0.029514259
0.0071066902 0.025156062 0.029043525
0.0090387221 0.024969209 0.028457189
0.010241669 0.024881456 0.028092116
-0.010226941 0.027045283 0.028096586
-0.0089637656 0.026781946 0.028479939
-0.0068050646 0.026961342 0.029135067
-0.0053062551 0.027008114 0.029474968
-0.0030322231 0.0269631 0.029701596
-0.0008384313 0.026802544 0.02991749
0.0011126029 0.027246187 0.029890507
0.0029522418 0.026916634 0.029709468
0.0049617789 0.026907936 0.029511707
0.0070261215 0.026979525 0.029067976
0.0089018149 0.026970115 0.028498741
0.010091628 0.026649581 0.028137648
-0.010330392 0.029704109 0.028065188
-0.0089088315 0.029098809 0.028496606
-0.0070636552 0.029233204 0.029056588
-0.0050489553 0.029065609 0.02950139
-0.0028843763 0.028908733 0.029716143
-0.00098040293 0.028985033 0.029903514
0.0010029536 0.028795641 0.029901298
0.0028932879 0.028853778 0.02971527
0.0049800845 0.029091511 0.029509906
0.0072661904 0.028797414 0.028995123
0.008879832 0.028844753 0.028505407
0.010162433 0.028780641 0.028116165
-0.010223489 0.031139726 0.028097631
-0.009107112 0.031170411 0.028436434
-0.0071659503 0.030847592 0.029025545
-0.0051484127 0.030844843 0.029491454
-0.0030391556 0.031001177 0.029700914
-0.00097196724 0.031087182 0.029904349
0.00064384995 0.030954178 0.02993664
0.0028643291 0.031096898 0.029718118
0.0047504245 0.031029813 0.029532507
0.0068189199 0.030836292 0.029130863
0.0089708827 0.030767011 0.028477779
0.010335282 0.031309254 0.028063705
-0.010257411 0.033086129 0.028087338
-0.0089659076 0.032861814 0.028479287
-0.0067935381 0.033210482 0.029138563
-0.0049274382 0.032944925 0.029515086
-0.0029114725 0.032959059 0.02971348
-0.00098449469 0.033122446 0.029903116
0.001176048 0.033220701 0.02988426
0.0029949709 0.032735009 0.029705264
0.0048459363 0.0329566 0.029523108
0.0068151131 0.033357009 0.029132016
0.008881988 0.032872654 0.028504757
0.010268158 0.032974679 0.028084077
-0.010116071 0.034526471 0.028130231
-0.0090346439 0.035303973 0.028458428
-0.0068530538 0.03481932 0.029120501
-0.0050858757 0.035100721 0.029498462
-0.0027288019 0.034910899 0.029731458
-0.00094226497 0.034834046 0.029907269
0.00096394162 0.035007771 0.029905137
0.0031229022 0.035080068 0.029692672
0.0048482465 0.035127506 0.029522875
0.0067792959 0.035152368 0.029142886
0.0091663273 0.035101496 0.028418465
0.010233839 0.035104461 0.028094487
-0.010242789 0.036799196 0.028091775
-0.0090266075 0.036952786 0.02846087
-0.0071478304 0.036992874 0.029031044
-0.0049437317 0.037230108 0.029512189
-0.0028088277 0.03686583 0.029723581
-0.00075120648 0.037283398 0.029926073
0.0011227462 0.036716029 0.029889507
0.0030028648 0.03708113 0.029704485
0.0051572826 0.037407588 0.029491752
0.0069241263 0.036842771 0.029098928
0.0091111558 0.036992099 0.028435208
0.010167715 0.037091423 0.028114559
-0.010205758 0.038808733 0.028103013
-0.0090649351 0.038773868 0.02844923
-0.0070395586 0.039092191 0.029063897
-0.0052303765 0.039036639 0.029482678
-0.0026518456 0.038949214 0.02973903
-0.00083367631 0.038889926 0.029917959
0.001014421 0.039173093 0.029900167
0.0029596468 0.038906507 0.029708739
0.005132203 0.038681831 0.029493563
0.006983805 0.039106138 0.029080819
0.0087432303 0.038816094 0.02854687
0.010300703 0.039273035 0.028074199
-0.010302991 0.041250203 0.028073506
-0.0090472195 0.041265264 0.028454609
-0.006881169 0.041075118 0.02911197
-0.0050529987 0.041059099 0.029501971
-0.0031144675 0.041009948 0.029693499
-0.0009097181 0.041259825 0.029910473
0.0010010434 0.040898412 0.029901488
0.0029798483 0.040826358 0.029706748
0.0051482916 0.04101032 0.029493351
0.006820478 0.041169077 0.029130388
0.0089613339 0.040751874 0.028480675
0.010310648 0.040953077 0.028071184
-0.01035108 0.043328375 0.028058911
-0.0089396173 0.042867094 0.028487265
-0.0068790736 0.04296045 0.029112604
-0.0050109238 0.043072555 0.029503046
-0.0031541623 0.042838272 0.029689595
-0.00099663693 0.042940337 0.029901918
0.0010994348 0.042938083 0.029891802
0.0028599363 0.042846676 0.029718552
0.0044444897 0.043044388 0.029562611
0.0071609225 0.043070033 0.029027071
0.0088045206 0.043238096 0.028528266
0.010298929 0.043629736 0.028074738
-0.010186735 0.045264903 0.028108789
-0.0091736 0.044973463 0.028416252
-0.0069076251 0.045103189 0.029103942
-0.0044956123 0.044930536 0.029557582
-0.0028048069 0.044928703 0.029723974
-0.00088995055 0.044905633 0.029912418
0.0013761685 0.045003552 0.02986457
0.0030837655 0.045109112 0.029696522
0.0051799207 0.044743478 0.029487366
0.006903036 0.044811666 0.029105334
0.0091082603 0.045133539 0.028436085
0.010335023 0.044511039 0.028063783
-0.01024241 0.046279967 0.028091891
-0.0091862641 0.046930477 0.028412411
-0.006923832 0.04713691 0.029099021
-0.0047820797 0.04702688 0.0295278
-0.0030770956 0.047085181 0.02969718
-0.0011325961 0.047018483 0.029888541
0.00082935579 0.047252897 0.02991838
0.0029041993 0.046877753 0.029714195
0.0050440654 0.046857174 0.029503608
0.0073359804 0.047104932 0.028973941
0.0089171231 0.047074251 0.02849409
0.010522274 0.046701536 0.028006956
-0.01033064 0.049157806 0.028065111
-0.0090677114 0.049068812 0.02844839
-0.0067090616 0.049118746 0.029164203
-0.0049306313 0.049042407 0.029514769
-0.0028258001 0.048823148 0.02972191
-0.0011270817 0.048954252 0.029889083
0.001185846 0.048769504 0.029883299
0.002883862 0.048878122 0.029716194
0.0050622085 0.048964761 0.029500632
0.0071924026 0.04888403 0.029017515
0.0091157472 0.049020212 0.028433813
0.010161433 0.048855942 0.028116466
-0.010354534 0.05093345 0.028057862
-0.0090019433 0.050821654 0.02846835
-0.0067664119 0.051032815 0.029146796
-0.0049514347 0.051140979 0.029512208
-0.002918795 0.050959237 0.029712757
-0.00079497078 0.050958771 0.029921766
0.0010001652 0.051161233 0.029901572
0.003541145 0.050965503 0.029651515
0.005033318 0.050892137 0.029502921
0.0071183564 0.05104747 0.029039988
0.009290752 0.050926536 0.028380701
0.010295212 0.051399175 0.028075866
-0.010303514 0.053085603 0.028073346
-0.0091306996 0.052952006 0.028429274
-0.0071667228 0.05287718 0.029025307
-0.0051062242 0.052843779 0.029495407
-0.0030710152 0.05316525 0.029697776
-0.00081714737 0.053070199 0.029919583
0.0011411429 0.053050242 0.0298877
0.0029823389 0.053065967 0.029706508
0.0050976258 0.053148128 0.029495833
0.0071217432 0.052930743 0.029038956
0.0088824658 0.0530417 0.02850461
0.010373686 0.052586757 0.028052052
-0.010211786 0.055447608 0.028101183
-0.0089283828 0.054724954 0.028490676
-0.0072291209 0.055048905 0.029006371
-0.0047732312 0.054849446 0.029528594
-0.0028116766 0.055075992 0.0297233
-0.0013440162 0.055096403 0.029867735
0.0010146103 0.055042613 0.02990015
0.0029710261 0.055038087 0.02970762
0.0052013495 0.054786917 0.029486068
0.0070672333 0.054918271 0.029055504
0.0090869358 0.054862916 0.02844256
0.010249378 0.05481695 0.028089773
-0.010307048 0.05714481 0.028072273
-0.008994271 0.05689146 0.028470678
-0.0069837933 0.057078287 0.029080827
-0.0050367778 0.057313219 0.029502204
-0.0029430995 0.057047866 0.029710364
-0.0010269771 0.056986213 0.029898938
0.0011254814 0.057232115 0.029889237
0.0031161562 0.056727108 0.029693335
0.0048868116 0.057084933 0.029519083
0.0068076043 0.056947488 0.029134296
0.0090004979 0.05687182 0.028468788
0.010252911 0.056998469 0.028088704
-0.010298256 0.058701038 0.028074941
-0.0089656953 0.059017811 0.028479351
-0.0068682837 0.059162471 0.02911588
-0.0049158409 0.059068974 0.029516065
-0.0030563206 0.059304442 0.029699227
-0.0012273761 0.058929995 0.029879212
0.00097223511 0.058380295 0.029904321
0.0031428866 0.059029352 0.029690707
0.0047313115 0.059435818 0.029534388
0.0071111373 0.058782794 0.029042179
0.0093578035 0.059045084 0.028360352
0.01035925 0.059327696 0.028056433
-0.010236848 0.061068501 0.028093578
-0.0089466469 0.060790572 0.028485134
-0.0072596092 0.060925845 0.028997121
-0.0049114279 0.0609827 0.02951666
-0.0030704832 0.061033014 0.029697828
-0.0012347348 0.060974143 0.029878488
0.00085868401 0.061469242 0.029915495
0.0030999759 0.061210487 0.029694928
0.0048947418 0.061121631 0.029517053
0.0068864999 0.060959756 0.029110352
0.0087470049 0.061270822 0.028545721
0.010314922 0.061011281 0.028069884
-0.010259626 0.062920041 0.028086666
-0.0088023758 0.062687427 0.028528919
-0.006893646 0.063142203 0.029108182
-0.0048630247 0.062794611 0.029521424
-0.0030795161 0.063197665 0.029696941
-0.0012517477 0.062838808 0.029876811
0.0010760842 0.063000806 0.029894102
0.0031227935 0.063137718 0.029692685
0.005145947 0.06321647 0.02949135
0.0071327821 0.063019477 0.029035609
0.0090250587 0.063009508 0.028461335
0.010250112 0.062381085 0.028089553
-0.01027072 0.065265216 0.0280833
-0.0091250483 0.064838536 0.028430989
-0.0070882663 0.064969555 0.029049117
-0.0050005564 0.064777277 0.029507328
-0.0028709124 0.065000571 0.029717473
-0.0010378191 0.064901322 0.029897869
0.00075321528 0.065021984 0.029925875
0.0026040878 0.064839467 0.029743729
0.0050769988 0.065412968 0.029498767
0.0067926212 0.065023907 0.029138841
0.0091336463 0.065211423 0.028428379
0.01022213 0.064410388 0.028098045
-0.010307601 0.066753946 0.028072106
-0.0088795284 0.067171529 0.028505502
-0.0069304155 0.067150019 0.029097024
-0.005162471 0.067090519 0.02948972
-0.0029796578 0.06708359 0.029706771
-0.001126408 0.066973962 0.029889146
0.0010689808 0.066898927 0.029894801
0.0028343436 0.067268804 0.02972107
0.0049480577 0.067033581 0.029513055
0.0071409261 0.067330129 0.029033137
0.0089810612 0.067009352 0.028474685
0.010406759 0.067142323 0.028042013
-0.010266569 0.069024831 0.028084558
-0.008770301 0.069040842 0.02853865
-0.0069132941 0.069194287 0.029102217
-0.0050566834 0.068894029 0.029500268
-0.0031318138 0.069145449 0.029691795
-0.00093547825 0.069139756 0.029907938
0.0008726946 0.069058426 0.029914116
0.0026960233 0.068837352 0.02973468
0.0052041588 0.068884946 0.029485958
0.0067650676 0.068730637 0.029147206
0.0089541255 0.068859085 0.028482862
0.010370679 0.068202063 0.028052961
-0.010280806 0.07069952 0.028080236
-0.0088570192 0.070882656 0.028512334
-0.0067447321 0.070742972 0.029153375
-0.0050808247 0.071156062 0.029498644
-0.002833171 0.070927985 0.029721187
-0.00095800956 0.070899323 0.029905723
0.00104262 0.071227893 0.029897396
0.0029999043 0.070916571 0.029704776
0.0051631676 0.071015082 0.029488262
0.006834283 0.071014039 0.029126197
0.0089310873 0.071048357 0.028489854
0.010151203 0.070716538 0.02811957
-0.010403754 0.073205724 0.028042924
-0.0086559244 0.072984122 0.028573362
-0.0070164585 0.073061377 0.02907091
-0.0048008868 0.073208123 0.029526919
-0.0029602868 0.072721913 0.029708674
-0.00082314201 0.073169038 0.029918997
0.000633761 0.073014982 0.029937632
0.0029408471 0.072880834 0.029710587
0.005045935 0.072915383 0.029497501
0.007032319 0.073039778 0.029066099
0.0091564581 0.072915986 0.028421458
0.010331739 0.072952762 0.02806478
-0.010175067 0.075395554 0.028112328
-0.0088469815 0.075059205 0.028515378
-0.0071711377 0.0747049 0.02902397
-0.0049992627 0.07493405 0.029505415
-0.0028141486 0.074900821 0.029723056
-0.00094371737 0.075130694 0.02990713
0.00087770965 0.075038068 0.029913623
0.0030272247 0.074816063 0.029702088
0.0052703 0.074931614 0.029480916
0.007152197 0.07493405 0.029029716
0.0090625109 0.074848197 0.028449968
0.010249053 0.075502738 0.028089875
-0.010309205 0.076939933 0.028071618
-0.0089514786 0.077148221 0.028483666
-0.0070660966 0.076981403 0.029055849
-0.0050150119 0.076909363 0.029506469
-0.0030922545 0.076879539 0.02969569
-0.00096280983 0.077095859 0.029905247
0.00079058798 0.076992132 0.029922197
0.0028421774 0.077198029 0.029720306
0.0050446754 0.077170663 0.029502399
0.0068701268 0.076869994 0.029115319
0.0091900425 0.07685741 0.028411269
-0.010403794 0.078831904 0.028042912
-0.008803973 0.078873135 0.028528433
-0.0069935294 0.079079263 0.029077871
-0.0051082261 0.078971975 0.029492898
-0.0029950128 0.079062603 0.029705258
-0.00090399059 0.078969344 0.029911036
0.00087785302 0.078947201 0.02991361
0.0030433983 0.078974433 0.029700493
0.0048422283 0.079067908 0.02952165
0.0070093637 0.079173341 0.029073065
0.0088579999 0.078938127 0.028512036
0.010251252 0.078771211 0.028089207
-0.010400912 0.08140146 0.028043788
-0.0090711387 0.080605403 0.02844735
-0.0069855135 0.080897622 0.029080302
-0.0048375065 0.081204735 0.029522721
-0.0028575964 0.080557153 0.029718781
-0.00090368296 0.081105582 0.029911065
0.0011687066 0.081201516 0.02988499
0.0030069198 0.081018217 0.029704086
0.0051365555 0.081137724 0.029491587
0.0070542186 0.080672182 0.029059453
0.0090798438 0.080917642 0.028444707
0.010223335 0.080966532 0.028097682
-0.010157723 0.08290799 0.028117592
-0.0087249242 0.082755536 0.02855242
-0.0067493329 0.083071388 0.029151978
-0.0049901991 0.083105221 0.029508427
-0.0031128053 0.083189927 0.029693663
-0.0010446587 0.082780577 0.029897196
0.0010884913 0.082945965 0.02989288
0.0030151287 0.082861245 0.029703282
0.005351075 0.083131 0.029467553
0.0069763446 0.082872406 0.029083084
0.0087923482 0.082998782 0.028531961
0.01031056 0.083112672 0.028071208
-0.010270592 0.085362948 0.028083337
-0.0092035448 0.085170612 0.02840717
-0.0069199284 0.085404508 0.029100208
-0.0049292822 0.085031487 0.029512174
-0.002898213 0.08513511 0.029714786
-0.00066238845 0.085120954 0.029934812
0.001168348 0.084858909 0.029885018
0.0027891842 0.084715776 0.029725516
0.0050947648 0.085150719 0.029496277
0.006877094 0.084975913 0.029113205
0.0090682199 0.084758446 0.028448237
0.010408339 0.084975392 0.028041534
-0.010341725 0.086668611 0.028061749
-0.0090926383 0.086819105 0.028440824
-0.0068679377 0.086868823 0.029115984
-0.0049528689 0.086934008 0.029512584
-0.0030290475 0.086907424 0.029701909
-0.0011625112 0.087042525 0.029885596
0.00095247338 0.086967491 0.029906264
0.0028079809 0.086872749 0.029723663
0.0050864201 0.087115698 0.02949944
0.0069823368 0.086785048 0.029081266
0.0090010297 0.086880736 0.028468627
0.010297194 0.086798273 0.028075265
-0.010461368 0.089120656 0.028025439
-0.0092107831 0.088792615 0.028404972
-0.0070069735 0.089015342 0.02907379
-0.0049069561 0.088655502 0.029516075
-0.0029925921 0.088893004 0.029705497
-0.00088780525 0.089044094 0.029912628
0.00069872255 0.089109197 0.029931238
0.0031359156 0.089010917 0.029691396
0.0050519202 0.089199558 0.029500809
0.0068235751 0.088960014 0.029129446
0.008881635 0.08900594 0.02850486
0.010298032 0.089191809 0.02807501
-0.010392126 0.091018617 0.028046455
-0.0092542535 0.090897366 0.028391778
-0.0067694322 0.091124125 0.029145876
-0.0049776821 0.090749562 0.029509505
-0.0029206665 0.090963691 0.029712571
-0.0010839358 0.091267608 0.029893329
0.00092628528 0.090919062 0.029908847
0.0029062438 0.09070491 0.029713992
0.0050384458 0.091075756 0.029501988
0.0070075924 0.090995148 0.029073602
0.0091704475 0.091049224 0.028417209
0.01050148 0.091632396 0.028013267
-0.010276747 0.093019366 0.028081471
-0.008948952 0.092951596 0.028484434
-0.0070537045 0.093044408 0.029059606
-0.0047210292 0.092881128 0.029535402
-0.0030525934 0.093124636 0.029699588
-0.0012394878 0.092902213 0.02987802
0.00071724324 0.093111716 0.029929414
0.0033378736 0.092850223 0.029671514
0.0050500939 0.092816487 0.02950068
0.0072088204 0.092947066 0.029012529
0.0089169312 0.092805207 0.028494149
0.010150839 0.092646919 0.028119681
-0.010185707 0.09528137 0.028109098
-0.0090618981 0.09504167 0.028450154
-0.0069779805 0.095045485 0.029082589
-0.0050625866 0.094979838 0.02950081
-0.0028261603 0.095041953 0.029721877
-0.00098077254 0.09527386 0.029903479
0.0011038674 0.094653495 0.029891364
0.0031111604 0.094924234 0.029693827
0.0049843816 0.094799139 0.029508755
0.0067871795 0.094920091 0.029140493
0.0089910515 0.094826736 0.028471652
0.010265673 0.095665976 0.028084829
-0.010208293 0.096915543 0.028102245
-0.0092373183 0.096806705 0.028396919
-0.006638533 0.096818522 0.029185602
-0.0049071298 0.096709117 0.029515579
-0.0024138156 0.096776843 0.029762454
-0.00099151128 0.097107895 0.029902421
0.0010926038 0.096793622 0.029892476
0.0032424596 0.097102873 0.029680908
0.0049646259 0.096811101 0.029509682
0.0071540284 0.096990734 0.029029164
0.0091467248 0.096765675 0.028424412
0.010167602 0.097419813 0.028114593
-0.010109814 0.099081323 0.028132131
-0.0088310083 0.099095769 0.028520225
-0.0072241747 0.098909408 0.029007873
-0.0051636309 0.099091493 0.029490666
-0.002928837 0.099078216 0.029711772
-0.0010847331 0.09880846 0.029893249
0.00099067681 0.098686665 0.029902505
0.0030952718 0.09907677 0.02969539
0.0052509243 0.098905206 0.029479759
0.0067508188 0.099140249 0.029151529
0.0092159472 0.09874098 0.028403405
0.010115597 0.099508107 0.028130375
-0.010294809 0.10149143 0.028075987
-0.0089212153 0.10139143 0.028492849
-0.0069771823 0.10100818 0.029082831
-0.0049032425 0.10132023 0.029516689
-0.0028513435 0.10104968 0.029719396
-0.00094452413 0.10100506 0.029907048
0.00078694505 0.10083809 0.029922558
0.0033995933 0.10054941 0.029665444
0.005145249 0.10113529 0.02949306
0.0070571038 0.10094013 0.029058576
0.0089117074 0.10126627 0.028495736
0.010259487 0.10124784 0.028086707
-0.010238762 0.10247994 0.028092997
-0.0088690696 0.10281491 0.028508672
-0.0068881153 0.10326044 0.02910986
-0.0052845874 0.10271623 0.029476548
-0.0030550784 0.1030105 0.029699344
-0.0010702994 0.10321902 0.02989467
0.00093487435 0.10270601 0.029907998
0.0029774802 0.10329834 0.029706983
0.0053439685 0.10305136 0.029469538
0.0073257899 0.10305353 0.028977033
