# .PCD v0.7 - Point Cloud Data file format
VERSION 0.7
FIELDS x y z
SIZE 4 4 4
TYPE F F F
COUNT 1 1 1
WIDTH 1329
HEIGHT 1
VIEWPOINT 0 0 0 1 0 0 0
POINTS 1329
DATA ascii
0.085459888 -0.026127147 -0.03005439
0.086947754 -0.026122356 -0.030058324
0.089024186 -0.026053594 -0.030114764
0.09164381 -0.026010893 -0.030149817
0.092926927 -0.026099758 -0.030076876
0.094695643 -0.026122421 -0.030058268
0.098896898 -0.026039215 -0.030126568
0.10103676 -0.026075045 -0.030097157
0.10300576 -0.026117295 -0.030062476
0.10413165 -0.026152473 -0.030033605
0.10914046 -0.026084283 -0.030089578
0.11120428 -0.026086163 -0.030088032
0.1144181 -0.026185162 -0.03000677
0.11609814 -0.026152495 -0.030033585
0.12016675 -0.0261756 -0.030014621
0.12311424 -0.026120232 -0.030060068
0.12554681 -0.026116759 -0.030062918
0.13103002 -0.026092783 -0.030082598
0.13344468 -0.026141092 -0.030042944
0.13492046 -0.026037013 -0.03012838
0.13770305 -0.026039569 -0.030126277
0.13945362 -0.026093397 -0.030082095
0.14195137 -0.026137475 -0.030045915
0.14229223 -0.026047735 -0.030119576
0.14531651 -0.026007812 -0.030152345
0.14952393 -0.026141208 -0.030042853
0.15149437 -0.026177414 -0.030013133
0.15348221 -0.026019361 -0.030142866
0.15589441 -0.026102897 -0.030074298
0.15644431 -0.026144728 -0.030039962
0.15949392 -0.026073741 -0.030098228
0.0008393444 -0.024941871 -0.030914735
0.0032657338 -0.024869651 -0.031086572
0.0047259284 -0.024476757 -0.031409066
0.007031342 -0.025157167 -0.030850573
0.0089677209 -0.025086978 -0.030908184
0.011297172 -0.024555806 -0.031344183
0.013052255 -0.024805555 -0.031139184
0.014975552 -0.024899514 -0.031062063
0.017225035 -0.024982695 -0.030993782
0.019222349 -0.025164213 -0.030844787
0.020990552 -0.025038872 -0.030947672
0.023053588 -0.024885697 -0.031073399
0.025009466 -0.025267852 -0.030759718
0.027087092 -0.0252057 -0.030810736
0.02903576 -0.024951961 -0.031019006
0.030966895 -0.02522816 -0.030792302
0.032713875 -0.025221569 -0.030797713
0.034519192 -0.025396887 -0.030653803
0.036935527 -0.025109321 -0.03088985
0.039032049 -0.024967236 -0.031006472
0.041140616 -0.024906747 -0.031056123
0.042922679 -0.024915593 -0.031048859
0.045363054 -0.025028842 -0.030955907
0.047163367 -0.025339719 -0.03070073
0.04887788 -0.025121277 -0.03088003
0.050653297 -0.025151893 -0.030854903
0.05325732 -0.024885658 -0.031073432
0.054903846 -0.024692936 -0.031231629
0.056953084 -0.024473052 -0.031412113
0.059268739 -0.02481892 -0.031128213
0.060717344 -0.025002778 -0.030977299
0.063049138 -0.024945447 -0.031024357
0.065352164 -0.02508636 -0.030908693
0.066960961 -0.024951033 -0.031019766
0.069167666 -0.024949647 -0.031020913
0.071118996 -0.024970908 -0.031003458
0.072853036 -0.024684928 -0.031238193
0.075210914 -0.025077146 -0.030916253
0.077095903 -0.024815058 -0.031131383
0.079411857 -0.024810726 -0.031134943
0.081094004 -0.02461832 -0.031292871
0.082757823 -0.025489444 -0.030577831
0.084979892 -0.024937047 -0.031031251
0.08697734 -0.025186094 -0.030826829
0.089266971 -0.025247078 -0.030776775
0.09087836 -0.024834914 -0.031115081
0.092970841 -0.024900271 -0.031061439
0.094998099 -0.025112791 -0.030886997
0.096911274 -0.024892112 -0.031068135
0.099157371 -0.024924412 -0.031041622
0.10088755 -0.025285607 -0.030745147
0.10271925 -0.024839608 -0.031111229
0.10474025 -0.025333287 -0.030706011
0.10658647 -0.025165144 -0.030844023
0.10889022 -0.025160432 -0.03084789
0.11077527 -0.025094638 -0.030901896
0.11293256 -0.024867447 -0.031088384
0.11495125 -0.02509376 -0.030902617
0.11702635 -0.025228918 -0.030791681
0.11877117 -0.024941044 -0.031027973
0.12092008 -0.024788652 -0.031153057
0.12292018 -0.025069492 -0.030922536
0.12476866 -0.024781946 -0.031158557
0.12713991 -0.024788564 -0.031153135
0.12913324 -0.024984604 -0.030992215
0.13086694 -0.025137629 -0.030866608
0.13295303 -0.024854509 -0.031098999
0.13513136 -0.025047684 -0.030940436
0.13674322 -0.024917461 -0.031047329
0.13942201 -0.025070798 -0.030921463
0.14077121 -0.02512813 -0.030874405
0.14306185 -0.024936067 -0.031032057
0.14488254 -0.025091121 -0.030904787
0.14700694 -0.024928365 -0.031038379
0.14930467 -0.025311492 -0.030723901
0.1510462 -0.024606148 -0.031302866
0.15297388 -0.024959698 -0.03101266
0.15517008 -0.024786979 -0.031154433
0.1570044 -0.024986329 -0.030990796
0.15901437 -0.024865728 -0.030988716
0.00020556789 -0.02316696 -0.03117254
0.0033493612 -0.023974609 -0.031821243
0.0055403085 -0.023927975 -0.031859517
0.011480093 -0.023903118 -0.031879924
0.01260498 -0.02389048 -0.031890295
0.015593223 -0.023911711 -0.031872869
0.016460666 -0.023809152 -0.031957053
0.018846903 -0.023815328 -0.031951983
0.021215606 -0.0237861 -0.031975973
0.023010386 -0.023889478 -0.031891119
0.028124712 -0.023925483 -0.031861566
0.031124044 -0.02382258 -0.031946033
0.034997109 -0.023863388 -0.031912535
0.036638118 -0.023937296 -0.031851869
0.0393974 -0.023888789 -0.031891685
0.041521978 -0.02380516 -0.031960327
0.044719372 -0.023871189 -0.031906132
0.048882522 -0.023841668 -0.031930365
0.050896119 -0.023928098 -0.03185942
0.053433005 -0.023895064 -0.031886533
0.055144809 -0.023890728 -0.031890094
0.056565121 -0.023923211 -0.031863429
0.058711164 -0.023929378 -0.03185837
0.063225664 -0.02386908 -0.03190786
0.065050714 -0.023866743 -0.031909779
0.068792515 -0.023982381 -0.031814862
0.070112847 -0.02388468 -0.031895056
0.073471494 -0.023830246 -0.031939737
0.074418359 -0.023781702 -0.031979583
0.081550851 -0.023942253 -0.031847797
0.083496988 -0.023841053 -0.031930868
0.088787861 -0.023999378 -0.031800911
0.090202667 -0.023903433 -0.031879663
0.092764132 -0.023834094 -0.031936582
0.095082879 -0.023904687 -0.031878635
0.099224508 -0.023837108 -0.031934105
0.10357965 -0.023806736 -0.031959038
0.10646516 -0.023838375 -0.031933066
0.1088649 -0.023807453 -0.031958446
0.11024732 -0.023898846 -0.031883426
0.11218365 -0.023893196 -0.031888071
0.11536445 -0.023892779 -0.03188841
0.11788619 -0.023996618 -0.031803176
0.12108216 -0.023766393 -0.031992149
0.12306803 -0.023890998 -0.031889874
0.12525108 -0.023855079 -0.03191936
0.12738144 -0.023893258 -0.031888019
0.12879941 -0.023848349 -0.031924881
0.13667808 -0.023919996 -0.03186607
0.14068757 -0.023826979 -0.031942423
0.14314401 -0.023911558 -0.031872995
0.14620887 -0.023797009 -0.031967018
0.14886281 -0.02388924 -0.031891316
0.15170677 -0.023921581 -0.03186477
0.15437829 -0.023804111 -0.031961188
0.15722932 -0.023865104 -0.031911124
0.16 -0.022459356 -0.03119801
0.16000001 -0.02283622 -0.030354055
0 -0.020639621 -0.030961977
0.16 -0.020881882 -0.031475794
0 -0.019233964 -0.030829281
0.15999998 -0.019060249 -0.031444494
0 -0.017203983 -0.031137278
0.15999998 -0.017080603 -0.030805381
0 -0.015144291 -0.031186922
0.15999998 -0.014761616 -0.031066481
0 -0.012770633 -0.030573374
0.15999998 -0.012853215 -0.031249324
0 -0.011378636 -0.031192467
0.15999998 -0.011222738 -0.031061688
0 -0.008891264 -0.031229617
0.15999998 -0.0091309445 -0.030907145
0 -0.0069700466 -0.03080212
0.16 -0.0065430589 -0.030398892
0.16000001 -0.0063364683 -0.031265587
0 -0.0050959787 -0.031077681
0.15999998 -0.0052082017 -0.030730831
0 -0.0031415715 -0.031233666
0.15999998 -0.0028596094 -0.031053549
0 -0.0010532388 -0.030786239
0.15999998 -0.00086046429 -0.03130104
0 0.0014269804 -0.030946614
0.15999998 0.00087565201 -0.030978778
0 0.002671703 -0.0316016
0.15999998 0.0027603377 -0.030724868
0 0.0052455156 -0.03104721
0.15999998 0.0051244646 -0.03089352
0 0.0068786754 -0.031164259
0.15999998 0.0071365819 -0.030960171
0 0.0086931828 -0.030931422
0.15999998 0.0089884242 -0.030634547
0 0.01075788 -0.030870724
0.15999998 0.011073 -0.030895092
0 0.012845302 -0.030969424
0.16 0.01301227 -0.031207005
0 0.014713816 -0.031556796
0.15999998 0.014833556 -0.030959211
0 0.017168639 -0.031174732
0.15999998 0.017260784 -0.030941369
0 0.018577654 -0.030768732
0.16 0.019252962 -0.031692252
0 0.020774581 -0.031642862
0.15999998 0.021396553 -0.030944163
0.00017407503 0.023069121 -0.031423107
0.011103544 0.02391818 -0.031867564
0.013257313 0.023794366 -0.03196919
0.015949659 0.023861909 -0.031913746
0.016808642 0.023962414 -0.03183125
0.021300806 0.023866236 -0.031910196
0.02385952 0.023932524 -0.031855784
0.026674595 0.023937717 -0.031851523
0.028457459 0.023865476 -0.031910822
0.033420257 0.023980424 -0.031816471
0.035115577 0.023922659 -0.031863883
0.038110368 0.023767965 -0.03199086
0.040348902 0.023947598 -0.031843416
0.043070711 0.023841539 -0.031930469
0.045921121 0.023846632 -0.031926285
0.047199998 0.023919933 -0.031866126
0.051330574 0.023895267 -0.031886369
0.052991357 0.023854144 -0.03192012
0.054431394 0.023960769 -0.031832606
0.057869334 0.023868766 -0.031908125
0.058205467 0.023872772 -0.031904832
0.061109446 0.023878813 -0.031899877
0.064947456 0.023901947 -0.031880885
0.067080565 0.02394842 -0.031842738
0.068538561 0.023947779 -0.031843264
0.070917457 0.023887793 -0.031892501
0.079507768 0.02388275 -0.03189664
0.083541557 0.023789285 -0.031973358
0.088729069 0.023912398 -0.031872302
0.091536 0.023789728 -0.031972997
0.093484804 0.023824468 -0.03194448
0.094891958 0.02393024 -0.031857662
0.098285079 0.023830203 -0.031939771
0.10428368 0.023974299 -0.031821497
0.10741834 0.023994442 -0.031804964
0.1116729 0.023860931 -0.031914551
0.11502267 0.023891453 -0.031889498
0.11759625 0.023927238 -0.031860124
0.12503803 0.023806076 -0.031959578
0.12688126 0.023977146 -0.031819161
0.12912342 0.023885017 -0.031894781
0.13075542 0.023930389 -0.031857543
0.13456663 0.023832023 -0.031938281
0.13637112 0.023876486 -0.031901784
0.13860127 0.023801092 -0.031963669
0.1406146 0.023823766 -0.031945057
0.14336197 0.023875708 -0.031902425
0.14688699 0.023978733 -0.031817861
0.14963266 0.023928288 -0.031859264
0.15342022 0.023879088 -0.031899646
0.15565419 0.023890018 -0.031890675
0.15646583 0.023917016 -0.031868517
0.15994896 0.023015555 -0.030988503
0.00089799293 0.024720928 -0.031189812
0.0032018437 0.025018133 -0.030964693
0.0050584245 0.025189532 -0.030824006
0.0070646657 0.024957031 -0.031014852
0.0088598179 0.025159748 -0.030848451
0.010990688 0.025123429 -0.030878266
0.013151189 0.025310278 -0.030724898
0.01511951 0.025102295 -0.030895613
0.017123621 0.025071578 -0.030920826
0.019010868 0.024687517 -0.031236071
0.020772666 0.02455787 -0.031342488
0.023527233 0.025102578 -0.030895382
0.025147364 0.024954448 -0.031016964
0.026816061 0.025062999 -0.030927867
0.028867705 0.024950292 -0.031020379
0.031200556 0.025204601 -0.030811638
0.032865092 0.025325997 -0.030711994
0.034975056 0.025062731 -0.03092809
0.037192222 0.024821557 -0.03112605
0.038734786 0.024936726 -0.031031514
0.04130137 0.024717676 -0.031211317
0.043257009 0.025373254 -0.030673206
0.044598632 0.025129469 -0.030873308
0.046523508 0.024876146 -0.031081242
0.04954683 0.024880782 -0.031077435
0.051257011 0.024928257 -0.031038471
0.053003058 0.024695842 -0.031229239
0.055465467 0.025187986 -0.030825274
0.056631405 0.025028979 -0.030955795
0.059259068 0.024780065 -0.031160109
0.061035156 0.024933742 -0.031033963
0.063174829 0.02470739 -0.03121976
0.064691089 0.024655737 -0.031262159
0.066927917 0.025059244 -0.030930949
0.069203191 0.02507305 -0.030919619
0.070911184 0.025203774 -0.030812318
0.0728264 0.025127359 -0.030875036
0.074835308 0.02513822 -0.030866126
0.077172525 0.025163407 -0.030845452
0.07870467 0.025272641 -0.030755792
0.080796674 0.02496404 -0.031009097
0.083136037 0.024827298 -0.031121334
0.084888279 0.025167435 -0.030842146
0.08709643 0.024996506 -0.030982446
0.089007638 0.024857653 -0.031096423
0.091002688 0.024877522 -0.031080112
0.093169406 0.024816724 -0.031130012
0.095096886 0.024875609 -0.03108168
0.097089693 0.024970746 -0.031003593
0.098825254 0.025153114 -0.030853897
0.10101034 0.02499157 -0.030986495
0.10318871 0.025061436 -0.03092915
0.10475904 0.024652014 -0.031265214
0.10695397 0.025350595 -0.030691804
0.10887361 0.02529295 -0.030739121
0.11080186 0.025304655 -0.030729512
0.1126873 0.025216473 -0.03080189
0.11517368 0.025024058 -0.030959826
0.1170866 0.024751753 -0.031183345
0.11882584 0.024992401 -0.030985817
0.12099317 0.025233284 -0.030788098
0.12272792 0.025038896 -0.030947654
0.12466881 0.025171347 -0.030838933
0.12685655 0.024991611 -0.030986464
0.12921561 0.025186071 -0.03082685
0.13115555 0.024567483 -0.031334598
0.13300809 0.024876628 -0.031080844
0.13518357 0.025029387 -0.03095546
0.13716441 0.02506317 -0.030927725
0.13878965 0.025385607 -0.030663066
0.14116333 0.024863048 -0.031091992
0.14324482 0.024924576 -0.031041488
0.14504327 0.024927448 -0.03103913
0.14688314 0.025331933 -0.030707121
0.14891331 0.025036179 -0.030949881
0.15092969 0.024942741 -0.031026579
0.15306117 0.02506616 -0.03092527
0.15496907 0.025194937 -0.030819565
0.15714183 0.024546074 -0.03135217
0.15945141 0.024760216 -0.031141117
0.0010930777 0.026138769 -0.03004485
0.0032409953 0.026054405 -0.030114103
0.0054051778 0.026063902 -0.030106304
0.006572132 0.026155073 -0.030031474
0.0091068642 0.026063435 -0.030106688
0.012761975 0.02607058 -0.030100822
0.016339697 0.026123175 -0.030057652
0.01870212 0.026132617 -0.030049901
0.02289279 0.026110094 -0.03006839
0.027365236 0.026013125 -0.030147985
0.028692875 0.026179295 -0.030011587
0.030027542 0.026045736 -0.030121215
0.032880284 0.026091401 -0.030083735
0.035884332 0.026152847 -0.030033296
0.036191557 0.026127379 -0.030054202
0.039704751 0.026076984 -0.03009557
0.045090452 0.026111554 -0.030067187
0.051193569 0.026120169 -0.03006012
0.052879732 0.026026839 -0.030136727
0.054052018 0.026112277 -0.030066594
0.058426276 0.026077146 -0.030095436
0.06088664 0.026062563 -0.030107405
0.064398281 0.026184 -0.030007724
0.069438733 0.026135638 -0.030047424
0.071085349 0.026104625 -0.030072875
0.073257521 0.026112238 -0.03006663
0.077358544 0.026113611 -0.030065501
0.078411557 0.026004657 -0.030154936
0.083033003 0.026105786 -0.030071925
0.084905528 0.026160672 -0.030026875
0.08680395 0.026072441 -0.030099297
0.090292051 0.026110679 -0.030067906
0.092513531 0.026102375 -0.030074723
0.094505921 0.026152762 -0.030033369
0.096742131 0.02616632 -0.030022237
0.099967919 0.026004432 -0.030155122
0.10178354 0.026016092 -0.03014555
0.10311405 0.026049033 -0.030118508
0.10500197 0.026004411 -0.030155135
0.10644954 0.026170764 -0.03001859
0.10898916 0.026091397 -0.030083738
0.11080299 0.026093982 -0.030081615
0.11531896 0.026120493 -0.030059854
0.11821516 0.026078593 -0.030094247
0.12140691 0.026080441 -0.030092729
0.1275987 0.026093218 -0.030082241
0.1282478 0.026082743 -0.030090839
0.13011748 0.026010141 -0.030150434
0.13218606 0.026074711 -0.030097434
0.13557762 0.026099106 -0.030077409
0.13692647 0.026110027 -0.030068442
0.13939138 0.026002444 -0.030156748
0.14102501 0.026127119 -0.030054417
0.1438404 0.026032275 -0.030132268
0.14454755 0.026113354 -0.030065715
0.14749141 0.026086412 -0.030087827
0.14897336 0.026113488 -0.030065604
0.15638205 0.026030723 -0.03013354
0.15885299 0.026064673 -0.030105673
0.0012511206 -0.028332008 -0.028225511
0.0032189304 -0.028251337 -0.028292967
0.0049136179 -0.02829124 -0.028241953
0.0068462691 -0.028178254 -0.028370099
0.0092087891 -0.028201237 -0.028339535
0.010875002 -0.02837296 -0.028167229
0.013065765 -0.028160233 -0.028385591
0.015139729 -0.028051294 -0.028475009
0.019655 -0.028237946 -0.028318588
0.021307021 -0.028227367 -0.028314019
0.023221038 -0.02826513 -0.028272506
0.024588207 -0.028230421 -0.028314766
0.02671559 -0.028272063 -0.028266735
0.028875375 -0.028378801 -0.028168505
0.03105766 -0.028317865 -0.028234499
0.033685885 -0.028285492 -0.028282182
0.034558397 -0.028145747 -0.028382231
0.036600448 -0.028201243 -0.028338525
0.039140362 -0.028387289 -0.028142368
0.040523637 -0.028384248 -0.028157573
0.042353861 -0.028298486 -0.028261311
0.044966869 -0.028225943 -0.028328028
0.047376841 -0.028394068 -0.028149908
0.049086876 -0.028042737 -0.028482031
0.0509427 -0.028302977 -0.028233618
0.053617992 -0.028408255 -0.028132617
0.05502573 -0.028085906 -0.028446602
0.057672843 -0.028226871 -0.02832865
0.058956824 -0.028369093 -0.028173517
0.060979098 -0.028391985 -0.028152443
0.063703164 -0.028301768 -0.028262351
0.065008253 -0.028289011 -0.028265279
0.068944745 -0.028260142 -0.028280886
0.07096003 -0.028262302 -0.028278422
0.073066168 -0.028247815 -0.028291831
0.074990422 -0.028137144 -0.028404541
0.076745033 -0.028248938 -0.028291665
0.078694664 -0.028294718 -0.028270943
0.081113063 -0.028313229 -0.028218115
0.082726419 -0.0282459 -0.028291862
0.085367344 -0.028132284 -0.028408531
0.086532734 -0.028158655 -0.028383622
0.089035034 -0.028308665 -0.0282267
0.091159396 -0.028175311 -0.028367022
0.092031918 -0.028464299 -0.02806434
0.094878316 -0.028339848 -0.028197546
0.09787517 -0.028159054 -0.028386561
0.098168716 -0.028361049 -0.028190134
0.1009841 -0.028290741 -0.028256005
0.10282653 -0.028296098 -0.02826491
0.10573989 -0.028303901 -0.028235359
0.10643876 -0.028236544 -0.028305337
0.10991454 -0.028402496 -0.02813964
0.11085524 -0.02833358 -0.028200882
0.11259764 -0.028283807 -0.028277829
0.11470409 -0.028299905 -0.028245348
0.11664699 -0.028372368 -0.028176341
0.11950862 -0.028316371 -0.028228257
0.12117943 -0.028212346 -0.028331432
0.12290815 -0.028141249 -0.028401172
0.12503065 -0.028306291 -0.028227141
0.12871437 -0.028294111 -0.028239004
0.13154849 -0.028312836 -0.028248867
0.13209824 -0.028308019 -0.028239723
0.13560088 -0.028338479 -0.028203296
0.13694333 -0.028161695 -0.028384391
0.13908198 -0.028298981 -0.0282571
0.14094196 -0.028186372 -0.028364135
0.14306735 -0.028142093 -0.028400481
0.14464441 -0.028176742 -0.02835766
0.1467043 -0.028390715 -0.028153993
0.14967749 -0.028298372 -0.02826649
0.15089707 -0.02827855 -0.028266825
0.15341631 -0.028264008 -0.028259076
0.15486893 -0.02822048 -0.028328376
0.15690184 -0.028427804 -0.028108802
0.15923558 -0.02824573 -0.028291892
0.00080036768 -0.027094999 -0.029064406
0.0031677103 -0.027145974 -0.029218117
0.0053524724 -0.027132418 -0.029229248
0.007216691 -0.027011108 -0.029328818
0.0088722445 -0.027063444 -0.029285856
0.011257312 -0.027103381 -0.029253077
0.012919009 -0.02719233 -0.029180065
0.014913567 -0.027175589 -0.029193809
0.017126666 -0.027287526 -0.029101925
0.018986147 -0.026994376 -0.029342551
0.020966562 -0.027026201 -0.029316427
0.022807404 -0.027090281 -0.029263832
0.024847552 -0.026851756 -0.029459616
0.027016155 -0.027167622 -0.029200349
0.029133942 -0.027017383 -0.029323667
0.030783733 -0.027061552 -0.029287413
0.032880716 -0.027250566 -0.029132266
0.035045911 -0.027313944 -0.029080242
0.037068605 -0.02720865 -0.029166669
0.039006073 -0.026940862 -0.029386479
0.040915068 -0.02724676 -0.029135391
0.04293365 -0.027207155 -0.029167898
0.045073673 -0.027183836 -0.029187035
0.047426011 -0.026765157 -0.029530702
0.048893567 -0.027156502 -0.029209472
0.050741784 -0.026787002 -0.029512769
0.053020541 -0.027277531 -0.02911013
0.054990519 -0.027102431 -0.029253857
0.057246048 -0.027245166 -0.029136697
0.058589984 -0.026760641 -0.029534407
0.060859866 -0.027208989 -0.029166391
0.063087255 -0.027060201 -0.029288523
0.064742029 -0.027314095 -0.029080119
0.066965215 -0.026820833 -0.029484997
0.068853199 -0.027198536 -0.029174972
0.071272202 -0.026928067 -0.029396975
0.072876178 -0.027006058 -0.029332964
0.075003803 -0.026830295 -0.029477229
0.077038445 -0.027127409 -0.029233357
0.078955993 -0.027156528 -0.029209455
0.080959402 -0.026960317 -0.029370507
0.082976699 -0.026773648 -0.02952373
0.085044317 -0.027137488 -0.029225085
0.086919956 -0.027333442 -0.029064242
0.089051254 -0.027022375 -0.029319571
0.090825669 -0.0270399 -0.029305184
0.093024448 -0.02688802 -0.029429853
0.09504158 -0.026908856 -0.029412746
0.097206578 -0.027280185 -0.029107952
0.098946139 -0.027279787 -0.029108278
0.10084589 -0.027022136 -0.029319763
0.10285959 -0.027021203 -0.029320534
0.10520176 -0.02743048 -0.028984586
0.1071136 -0.027195133 -0.029177764
0.10906412 -0.027206168 -0.02916871
0.11103202 -0.026749317 -0.029543702
0.1128681 -0.027203009 -0.029171305
0.11507346 -0.027446024 -0.028971829
0.11685988 -0.027252279 -0.029130859
0.11910779 -0.027194455 -0.029178321
0.1213323 -0.027039798 -0.029305268
0.12307189 -0.026926249 -0.029398475
0.12462791 -0.027162684 -0.029204398
0.12704208 -0.027067294 -0.029282698
0.12880874 -0.027270891 -0.02911558
0.13047212 -0.027677566 -0.028781777
0.13305466 -0.027201751 -0.029172331
0.13480568 -0.02710595 -0.029250972
0.13685921 -0.027072866 -0.029278126
0.13843635 -0.027257279 -0.029126754
0.14106151 -0.027138263 -0.029224444
0.14311278 -0.02689448 -0.029424548
0.14532444 -0.0268813 -0.029435366
0.14694761 -0.026893647 -0.029425234
0.14883776 -0.027124505 -0.029235739
0.15066308 -0.027004259 -0.029334445
0.15308513 -0.027318643 -0.02907639
0.15515491 -0.027113283 -0.02924495
0.15667386 -0.02725525 -0.029128419
0.15944354 -0.026896553 -0.028948812
0 -0.025102502 -0.029091014
0.16 -0.024645519 -0.029314121
0 -0.023104489 -0.029218948
0.16 -0.022966543 -0.029394355
0 -0.020777162 -0.029344928
0.16 -0.020583011 -0.029570701
0 -0.018875394 -0.02866807
0.16 -0.019119112 -0.028765539
0 -0.016979167 -0.029252917
0.15999998 -0.017224424 -0.02895233
0 -0.014922848 -0.029079026
0.15999998 -0.015077282 -0.029030107
0.16000001 -0.014739559 -0.028073842
0 -0.012723632 -0.028962567
0.16 -0.013201108 -0.02895264
0 -0.010823245 -0.029000783
0.15999998 -0.011026226 -0.029196687
0 -0.0089452425 -0.028874727
0.16 -0.0089416923 -0.028229112
0 -0.0066702552 -0.028804991
0.15999998 -0.006678178 -0.028655598
0 -0.0043132342 -0.028777886
0.15999998 -0.0048834663 -0.028872274
0 -0.003349297 -0.028978465
0.15999998 -0.0033579022 -0.028986797
0 -0.00085314334 -0.028807359
0.15999998 -0.0011612916 -0.028992174
0 0.0011742668 -0.029118817
0.15999998 0.0010042089 -0.029183511
0 0.0027278489 -0.029201914
0.16 0.0030409221 -0.02879609
0 0.0052905264 -0.02914869
0.15999998 0.0049844789 -0.028648594
0 0.0070493817 -0.029094899
0.15999998 0.0073106322 -0.029250562
0 0.0091175828 -0.028732726
0.15999998 0.0088888146 -0.02911417
0 0.010783385 -0.028908679
0.16 0.010939944 -0.028983463
0 0.012815916 -0.029142078
0.15999998 0.012902224 -0.029155381
0 0.014999556 -0.029038517
0.16 0.014965286 -0.028743681
0 0.016827445 -0.028662637
0.15999998 0.016880846 -0.029203933
0 0.018967003 -0.02926659
0.15999998 0.018769927 -0.029026223
0 0.020955605 -0.028681505
0.15999998 0.021153873 -0.028519824
0 0.022950612 -0.028829379
0.15999998 0.022885427 -0.02881314
0 0.025068294 -0.029203253
0.15999998 0.024888147 -0.029258702
0.00052063429 0.027067641 -0.02901434
0.0030057586 0.027107818 -0.029249435
0.0049881758 0.02694778 -0.0293808
0.0068537504 0.027127888 -0.029232962
0.0091243451 0.026913239 -0.029409153
0.011129883 0.027009014 -0.029330539
0.013096954 0.027133457 -0.029228391
0.014918919 0.027294813 -0.029095944
0.017112443 0.02711447 -0.029243976
0.019196371 0.026995311 -0.029341785
0.020930927 0.026792267 -0.029508445
0.023172436 0.027179316 -0.029190751
0.024746142 0.027131107 -0.029230319
0.027442466 0.026953215 -0.029376339
0.028818334 0.026910188 -0.029411651
0.03108665 0.026999909 -0.029338012
0.032941375 0.027077205 -0.029274562
0.034549765 0.027450539 -0.028968122
0.036929134 0.027238013 -0.029142568
0.039161257 0.027047675 -0.029298801
0.040981982 0.027114689 -0.029243795
0.042736981 0.026992463 -0.029344121
0.045104753 0.027168244 -0.029199835
0.047006581 0.027185243 -0.02918588
0.04887196 0.026931861 -0.029393865
0.050876655 0.027444849 -0.028972793
0.053104591 0.027119437 -0.029239899
0.05498901 0.027044768 -0.029301193
0.056849312 0.027269689 -0.029116569
0.059074838 0.0272447 -0.029137079
0.061048809 0.027212845 -0.029163228
0.062832564 0.026907593 -0.029413784
0.064863056 0.026935183 -0.029391136
0.067165278 0.027138436 -0.029224303
0.069050342 0.027021902 -0.029319959
0.07143072 0.027282979 -0.029105661
0.072854452 0.027160898 -0.029205866
0.074799031 0.027112642 -0.029245473
0.077053159 0.027114676 -0.029243805
0.078926496 0.027477996 -0.028945586
0.081040673 0.026811402 -0.029492741
0.082971193 0.027105227 -0.029251564
0.08514218 0.027261967 -0.029122906
0.086945564 0.026961602 -0.029369453
0.08872465 0.026817447 -0.029487778
0.091048874 0.027282288 -0.029106224
0.092929982 0.027039444 -0.029305561
0.095048524 0.026824685 -0.029481836
0.097014725 0.026964333 -0.029367214
0.099015519 0.027325209 -0.029070994
0.1008911 0.02718788 -0.029183716
0.10313462 0.027186837 -0.029184574
0.1047142 0.027167061 -0.029200805
0.10696057 0.027116038 -0.029242691
0.10882216 0.027060969 -0.029287895
0.11107168 0.027200121 -0.029173668
0.11315553 0.027093116 -0.029261503
0.11535192 0.027389884 -0.029017914
0.11724933 0.02673885 -0.02955229
0.11885219 0.027327832 -0.029068846
0.12092932 0.027293175 -0.029097294
0.12292891 0.027096173 -0.029258996
0.12512141 0.026847944 -0.029462749
0.12721568 0.027030881 -0.029312586
0.12913522 0.027056588 -0.029291488
0.13120294 0.02742788 -0.028986722
0.13297339 0.0272393 -0.02914151
0.13504046 0.027168073 -0.029199976
0.13712321 0.026897443 -0.029422114
0.13899888 0.026873829 -0.0294415
0.14093941 0.027070748 -0.029279865
0.14279029 0.027200159 -0.029173641
0.14502952 0.027183918 -0.029186973
0.14674711 0.0270881 -0.029265624
0.14896002 0.026907951 -0.029413493
0.15137894 0.026990032 -0.029346114
0.15277767 0.026969327 -0.029363113
0.15495048 0.026816471 -0.029488577
0.15713096 0.027220823 -0.029156677
0.15945244 0.026719121 -0.02922684
0.00055310724 0.028293468 -0.028252821
0.0032844606 0.02811233 -0.028424911
0.004098482 0.028214272 -0.028341232
0.0079565048 0.028281027 -0.028286442
0.010943952 0.02828219 -0.02825441
0.012862279 0.02819716 -0.028349385
0.014976294 0.028238222 -0.028305789
0.017313028 0.028333127 -0.028211385
0.018890088 0.028386174 -0.028157055
0.021183113 0.028223703 -0.028328
0.022803387 0.028181054 -0.028360149
0.025437284 0.028219115 -0.028333073
0.027208077 0.028272334 -0.028284546
0.029280849 0.028377801 -0.028169725
0.031194858 0.028237546 -0.028310377
0.032838594 0.028283095 -0.028271385
0.035143901 0.028260108 -0.028280383
0.036743145 0.028309906 -0.028242042
0.038525693 0.028446103 -0.028086513
0.041297168 0.028229503 -0.02831929
0.042855915 0.028174916 -0.028373539
0.045462616 0.028270543 -0.028274605
0.047073241 0.028333239 -0.028210873
0.049776781 0.028285785 -0.028238043
0.053353518 0.028404713 -0.028135853
0.055078056 0.028176241 -0.028360235
0.056740981 0.02827747 -0.028259078
0.058979157 0.028129322 -0.028410964
0.062884375 0.028438689 -0.028095543
0.064099826 0.028078528 -0.028452657
0.067024566 0.02825978 -0.028279256
0.069469087 0.028278017 -0.028271183
0.070705622 0.028349228 -0.028181545
0.073187284 0.028317129 -0.028224446
0.07525491 0.028336078 -0.028199738
0.077018686 0.028391873 -0.028147573
0.078744367 0.028262552 -0.028288554
0.080951348 0.028198719 -0.028341336
0.082149424 0.02830882 -0.028253764
0.084632725 0.028355762 -0.028193206
0.087165952 0.028176842 -0.028371954
0.089436755 0.02812878 -0.028411407
0.090965532 0.028293915 -0.028245438
0.092956729 0.028134251 -0.028406916
0.094508663 0.028046574 -0.028478887
0.096697673 0.028339416 -0.028216489
0.099779308 0.028082389 -0.028449489
0.10156402 0.028001674 -0.028515741
0.10296068 0.028343141 -0.028199963
0.1051903 0.028219186 -0.028319344
0.10764436 0.028470468 -0.028056832
0.10904656 0.02823149 -0.028323714
0.11152583 0.028215146 -0.028337134
0.11259779 0.028385364 -0.028160512
0.11594225 0.028513514 -0.028004389
0.11704922 0.028205732 -0.028327951
0.11925407 0.028254092 -0.02830855
0.12046564 0.028345637 -0.028197004
0.12300915 0.028106252 -0.028429899
0.12529428 0.028272349 -0.02826708
0.12782508 0.028478842 -0.028046623
0.12925953 0.028104668 -0.028431201
0.13136421 0.028206592 -0.028331555
0.13294992 0.028318107 -0.028230758
0.13481738 0.02846498 -0.028063513
0.13707761 0.028332338 -0.028216552
0.13970576 0.028226893 -0.02832699
0.14066312 0.028276239 -0.028270533
0.14212993 0.028369984 -0.028169939
0.14542201 0.028068401 -0.028460966
0.14682882 0.028230917 -0.028327573
0.14883651 0.028441325 -0.028092332
0.15157665 0.028303942 -0.028238816
0.15361965 0.028319979 -0.028239539
0.15507492 0.028158553 -0.028384786
0.15716502 0.028184751 -0.028362745
0.15897804 0.028097257 -0.028437285
0.0018641853 -0.030061137 -0.026118929
0.0022644901 -0.03011905 -0.02604837
0.0049330043 -0.030145349 -0.026016336
0.0075067356 -0.030043 -0.026141023
0.012138338 -0.030031987 -0.02615444
0.017804641 -0.030079316 -0.02609678
0.01849718 -0.030041359 -0.026143026
0.021311557 -0.030091433 -0.026082022
0.022258211 -0.030047454 -0.026135603
0.025778264 -0.030031826 -0.026154637
0.027444335 -0.03004328 -0.026140684
0.035186976 -0.030101031 -0.026070327
0.036802586 -0.030070759 -0.026107205
0.038370017 -0.030135848 -0.026027909
0.040336378 -0.030060951 -0.026119158
0.043180168 -0.030032406 -0.026153933
0.050680839 -0.030046936 -0.026136231
0.053569797 -0.030118933 -0.026048521
0.054738753 -0.030074362 -0.026102822
0.057464093 -0.030093033 -0.026080072
0.06266921 -0.030004133 -0.026188381
0.064741701 -0.030085264 -0.026089538
0.071213961 -0.030082095 -0.026093394
0.072483912 -0.030036405 -0.026149059
0.074660778 -0.03008876 -0.02608528
0.076867282 -0.030031001 -0.026155641
0.078131519 -0.030032039 -0.02615438
0.080928683 -0.030054063 -0.026127551
0.083370298 -0.030060552 -0.026119644
0.088937901 -0.030082017 -0.02609349
0.091221973 -0.030114554 -0.02605385
0.09355969 -0.030141566 -0.026020944
0.095643774 -0.030007621 -0.026184127
0.097250268 -0.030078288 -0.026098035
0.09853828 -0.030104633 -0.026065938
0.1046787 -0.030108904 -0.026060734
0.11132056 -0.030093616 -0.026079362
0.1124406 -0.030105593 -0.026064768
0.11571844 -0.030136721 -0.026026845
0.11775416 -0.030067369 -0.026111336
0.12022698 -0.030106207 -0.026064022
0.1231633 -0.030065764 -0.026113294
0.12551515 -0.030064605 -0.026114704
0.12927851 -0.030069992 -0.02610814
0.13074093 -0.03012103 -0.026045963
0.13217176 -0.030070636 -0.026107356
0.13423522 -0.030016379 -0.026173458
0.1371998 -0.030033022 -0.026153183
0.14006844 -0.030155223 -0.026004307
0.14542009 -0.030018892 -0.026170399
0.14709392 -0.030057773 -0.026123028
0.14881259 -0.030003715 -0.026188884
0.15182167 -0.030120002 -0.026047217
0.1532346 -0.03006134 -0.026118681
0.1578624 -0.03008398 -0.026091103
0.00074701034 -0.029358685 -0.026917798
0.0031154158 -0.029222829 -0.027140232
0.0050908588 -0.029303638 -0.027041784
0.0068469523 -0.029414671 -0.026906513
0.0085312352 -0.029060075 -0.027338518
0.011192393 -0.029315425 -0.027027423
0.012905746 -0.029379912 -0.026948858
0.0150158 -0.029006023 -0.027404364
0.01655327 -0.029409513 -0.026912799
0.019037269 -0.029293589 -0.027054025
0.020911114 -0.029230084 -0.027131394
0.022903038 -0.029463802 -0.026846657
0.025051624 -0.02928406 -0.027065635
0.02697199 -0.029533695 -0.026761508
0.028980805 -0.029198503 -0.02716987
0.031041747 -0.029219247 -0.027144594
0.032788098 -0.029074818 -0.027320545
0.034613941 -0.029115053 -0.027271533
0.036973152 -0.029273117 -0.027078966
0.039136104 -0.029169688 -0.02720497
0.0410726 -0.02931753 -0.027024861
0.043103419 -0.029351665 -0.026983274
0.044571649 -0.02916564 -0.027209906
0.046912584 -0.029343359 -0.026993388
0.048989136 -0.029379895 -0.026948884
0.051306598 -0.02930453 -0.027040698
0.05299804 -0.029307945 -0.027036536
0.055001423 -0.029294429 -0.027053002
0.056669984 -0.029051889 -0.027348489
0.058888447 -0.029153306 -0.027224934
0.061457906 -0.029257311 -0.027098222
0.063095458 -0.029056814 -0.027342489
0.065357395 -0.029318498 -0.027023679
0.067229658 -0.029545575 -0.026747035
0.068671368 -0.028988579 -0.027425619
0.070949554 -0.029108211 -0.027279869
0.073130712 -0.029448016 -0.026865888
0.07514938 -0.029333042 -0.027005963
0.076954894 -0.029122723 -0.02726219
0.079253018 -0.029363647 -0.026968675
0.081026122 -0.029544851 -0.026747914
0.08341375 -0.029076194 -0.02731888
0.084816307 -0.029186593 -0.02718438
0.086967126 -0.029031912 -0.027372824
0.089022316 -0.029167853 -0.027207209
0.091226935 -0.029205456 -0.027161397
0.093408845 -0.02952107 -0.026776886
0.094632939 -0.029347658 -0.026988158
0.096960954 -0.02910977 -0.027277971
0.099010281 -0.029155986 -0.027221672
0.10139516 -0.029542819 -0.026750391
0.10287864 -0.029068295 -0.027328501
0.10479678 -0.029326722 -0.027013661
0.10688308 -0.029497534 -0.026805561
0.10911123 -0.029237932 -0.027121833
0.11116008 -0.029379811 -0.026948985
0.11270575 -0.029119765 -0.027265798
0.11491659 -0.029218247 -0.027145814
0.11695556 -0.029212726 -0.027152544
0.1192565 -0.029020043 -0.027387284
0.12106207 -0.029059455 -0.027339272
0.12280668 -0.029205805 -0.027160974
0.12508956 -0.029382493 -0.026945719
0.12687975 -0.029232161 -0.027128862
0.12925053 -0.029219961 -0.02714373
0.13091008 -0.029162139 -0.027214171
0.13310771 -0.029252117 -0.027104551
0.13506843 -0.029275294 -0.027076317
0.13711064 -0.029322615 -0.027018666
0.13891914 -0.029272951 -0.027079169
0.14068532 -0.029099731 -0.027290203
0.14261889 -0.029058704 -0.027340185
0.14471239 -0.029428409 -0.026889775
0.14682926 -0.029358719 -0.026974685
0.14924221 -0.029320601 -0.027021116
0.15081438 -0.02926757 -0.027085727
0.153024 -0.029413752 -0.026907634
0.15501153 -0.029315988 -0.027026737
0.15690485 -0.029335465 -0.027003009
0.15948458 -0.029267423 -0.026795244
0.16000001 -0.029217763 -0.02603996
0 -0.026517872 -0.027400216
0.15999998 -0.026498958 -0.026992872
0 -0.024698576 -0.026962548
0.15999998 -0.024780044 -0.027184172
0 -0.023068748 -0.026704637
0.15999998 -0.022657869 -0.027317259
0 -0.020458315 -0.027128085
0.16 -0.021060156 -0.02726293
0 -0.019173179 -0.027178077
0.15999998 -0.018967345 -0.027167877
0 -0.017433388 -0.026703417
0.15999998 -0.016729712 -0.026755791
0 -0.015440705 -0.026878983
0.15999998 -0.01475201 -0.026980892
0 -0.013098371 -0.026793828
0.15999998 -0.013144697 -0.027137171
0 -0.010776058 -0.026785687
0.15999998 -0.011024272 -0.027170507
0 -0.0089416187 -0.027201915
0.15999998 -0.0089996411 -0.027203415
0 -0.0070679956 -0.026924977
0.15999998 -0.0066183852 -0.026803378
0.16000001 -0.0072013913 -0.026893402
0 -0.0054690759 -0.027004818
0.16 -0.0046269442 -0.027313953
0 -0.0028828855 -0.027085297
0.16 -0.0027780351 -0.026885062
0 -0.00077956507 -0.027183335
0.15999998 -0.0010376461 -0.02708227
0 0.0010580781 -0.02713944
0.15999998 0.0011697742 -0.027000284
0 0.0031676935 -0.026992688
0.16 0.002938414 -0.027001206
0 0.0051055313 -0.026947221
0.15999998 0.0050464347 -0.027043408
0 0.0070814495 -0.027207669
0.16 0.0074609844 -0.027252298
0 0.0091056405 -0.02705406
0.15999998 0.0088985069 -0.026846031
0 0.010718899 -0.027129002
0.15999998 0.010888821 -0.027199972
0 0.013295927 -0.026955649
0.15999998 0.012822351 -0.027081525
0 0.014741679 -0.02712046
0.15999998 0.014744009 -0.027151367
0 0.017269572 -0.027256573
0.16 0.017330421 -0.026949113
0 0.018584853 -0.027430583
0.15999998 0.019273762 -0.0266953
0 0.020525193 -0.027244056
0.15999998 0.021265119 -0.026743092
0 0.023125928 -0.02722409
0.16 0.022830274 -0.027208144
0.16000001 0.022942165 -0.027860038
0 0.025108783 -0.027199026
0.16 0.025454167 -0.02677243
0 0.026982345 -0.027027393
0.15999998 0.026968366 -0.027106313
0.00071650068 0.028834037 -0.027240362
0.0028078586 0.029478483 -0.026828773
0.0053552324 0.029460859 -0.026850244
0.0072388537 0.029334411 -0.027004296
0.008865986 0.029172808 -0.027201172
0.010781857 0.02921878 -0.027145162
0.013293644 0.029289162 -0.027059421
0.014827062 0.029096097 -0.027294628
0.01722075 0.029237628 -0.027122203
0.018739183 0.029309897 -0.027034163
0.020611743 0.029023452 -0.027383134
0.023192395 0.029367864 -0.026963538
0.025038881 0.029206423 -0.027160222
0.027182495 0.029086292 -0.027306577
0.028816652 0.029406384 -0.026916612
0.030989928 0.029328488 -0.027011512
0.033304278 0.029242447 -0.027116328
0.03533363 0.029469576 -0.026839623
0.037275311 0.029164763 -0.027210975
0.038885016 0.029269312 -0.027083604
0.040939961 0.029389139 -0.026937615
0.043127231 0.029218113 -0.027145976
0.044533551 0.029564202 -0.026724339
0.046920463 0.029126009 -0.027258189
0.049061552 0.029410161 -0.026912009
0.050883006 0.029214939 -0.027149847
0.053125832 0.02930353 -0.027041914
0.055017643 0.029398974 -0.026925636
0.057067718 0.029477058 -0.026830509
0.058902837 0.029449048 -0.026864629
0.061151329 0.02924329 -0.027115308
0.062839724 0.029574379 -0.026711944
0.065179147 0.029303081 -0.027042462
0.066951841 0.029168257 -0.027206711
0.069121741 0.029067591 -0.027329355
0.071075909 0.029025573 -0.027380545
0.072915979 0.02927443 -0.027077368
0.074953422 0.029442694 -0.026872374
0.077096537 0.029364901 -0.026967151
0.078752592 0.029234983 -0.027125426
0.081149764 0.029209007 -0.027157068
0.082875818 0.02935379 -0.026980685
0.084964052 0.029452823 -0.026860032
0.086905032 0.029297262 -0.027049551
0.08887732 0.029278032 -0.027072975
0.090979993 0.029161971 -0.027214374
0.092955314 0.029310644 -0.027033247
0.094753049 0.029241754 -0.027117178
0.097038455 0.02939762 -0.026927287
0.099261209 0.029315393 -0.027027465
0.10111959 0.028945275 -0.027478375
0.10275007 0.029365484 -0.026966438
0.10518412 0.029536057 -0.02675863
0.10697106 0.029235931 -0.027124271
0.10885093 0.029491344 -0.026813108
0.110765 0.029333165 -0.02700581
0.11308498 0.029195013 -0.027174124
0.11510462 0.029432401 -0.026884913
0.11697938 0.029299844 -0.027046403
0.11917809 0.029478628 -0.026828598
0.12094409 0.029152112 -0.027226387
0.12372403 0.029093748 -0.027297493
0.1248202 0.029260656 -0.02709415
0.1272783 0.028899724 -0.027533868
0.12906562 0.02938455 -0.026943209
0.13119268 0.029233828 -0.02712683
0.13290842 0.028876914 -0.027561659
0.13486546 0.029185841 -0.0271853
0.13682246 0.029355455 -0.026978655
0.13904969 0.028975276 -0.027441828
0.14069335 0.029267276 -0.027086085
0.14337467 0.029406158 -0.026916884
0.14512955 0.029178895 -0.027193757
0.14710641 0.029390544 -0.026935909
0.14906012 0.029184178 -0.027187323
0.15102585 0.029204484 -0.02716258
0.15278348 0.029451739 -0.026861351
0.15504116 0.029196518 -0.027172286
0.15706865 0.02919597 -0.027172955
0.15962048 0.029181881 -0.026976811
0.0069891978 0.030024087 -0.026164064
0.011200352 0.030050237 -0.026132206
0.012966464 0.030073369 -0.026104027
0.015066476 0.030028882 -0.026158227
0.021667004 0.030010605 -0.026180489
0.026786346 0.03007355 -0.026103809
0.028393146 0.030089235 -0.026084695
0.030834943 0.030054266 -0.026127303
0.032481581 0.030068755 -0.026109649
0.037738413 0.030048985 -0.026133735
0.047290687 0.030006774 -0.026185159
0.055055529 0.030094093 -0.026078779
0.057789043 0.030079896 -0.026096076
0.061104953 0.030143766 -0.02601826
0.064261787 0.030029815 -0.026157092
0.068566486 0.030064408 -0.026114941
0.071400642 0.030035416 -0.02615026
0.073274381 0.030105431 -0.026064964
0.07517536 0.030071503 -0.0261063
0.0777089 0.030089967 -0.026083807
0.081878707 0.030153159 -0.026006818
0.08294785 0.030074624 -0.026102496
0.089768149 0.030076524 -0.026100188
0.091088042 0.030084718 -0.026090205
0.09718851 0.030105853 -0.026064454
0.098572768 0.030086556 -0.02608796
0.10081705 0.030120065 -0.02604714
0.10233808 0.030117765 -0.02604994
0.10871233 0.030080963 -0.026094774
0.11124167 0.030071545 -0.02610625
0.11543219 0.030096956 -0.026075292
0.1196406 0.030088898 -0.02608511
0.12181877 0.030122006 -0.026044771
0.122301 0.030039283 -0.026145555
0.12938449 0.030135466 -0.026028376
0.13519171 0.030149262 -0.026011568
0.13758172 0.030046441 -0.026136834
0.1412928 0.030031133 -0.026155483
0.14280477 0.030077193 -0.026099369
0.14700586 0.030079938 -0.026096022
0.15184389 0.0300937 -0.02607926
0.15292095 0.030059779 -0.026120586
0.15701225 0.030070279 -0.026107792
0.15869838 0.030041991 -0.026142254
0.00081523985 -0.030889815 -0.024957083
0.003100821 -0.030869735 -0.025133826
0.0050140014 -0.030929973 -0.025060436
0.0070560868 -0.031155668 -0.024785474
0.0086862324 -0.030788232 -0.025233116
0.011044548 -0.030732121 -0.025301473
0.013096317 -0.031141954 -0.024802178
0.014928673 -0.030902714 -0.025093645
0.016857078 -0.030656403 -0.025393721
0.018781234 -0.0306351 -0.025419677
0.021070123 -0.031016247 -0.02495533
0.023020726 -0.031155739 -0.024785388
0.025135299 -0.030789506 -0.025231561
0.02701322 -0.031059677 -0.024902416
0.029103182 -0.031026863 -0.024942392
0.030990234 -0.030862395 -0.025142765
0.033091497 -0.03080724 -0.025209961
0.035221979 -0.031006966 -0.024966635
0.036962498 -0.030855278 -0.025151437
0.039210796 -0.030857533 -0.025148686
0.040932186 -0.030937329 -0.025051478
0.042920355 -0.030757207 -0.025270915
0.044919543 -0.031101786 -0.024851115
0.046801478 -0.031053403 -0.024910055
0.049072601 -0.030797604 -0.025221696
0.051232856 -0.031033443 -0.024934376
0.053136915 -0.030968694 -0.025013261
0.054846216 -0.030901486 -0.025095133
0.05694139 -0.030860743 -0.025144778
0.059053835 -0.031015558 -0.024956167
0.060791731 -0.030849043 -0.025159035
0.062885046 -0.031233961 -0.024690088
0.064880997 -0.031067163 -0.024893301
0.067265458 -0.030939579 -0.025048733
0.06856031 -0.031130554 -0.024816066
0.070774779 -0.031080011 -0.024877643
0.072545104 -0.031295151 -0.024615543
0.074947342 -0.030895201 -0.025102796
0.077033281 -0.030747572 -0.025282651
0.079048254 -0.030752007 -0.025277251
0.081504315 -0.030852389 -0.025154959
0.082803182 -0.03110731 -0.024844389
0.085059382 -0.030869698 -0.025133863
0.087140784 -0.031301647 -0.024607627
0.088873431 -0.030908857 -0.025086161
0.091039948 -0.030849202 -0.025158834
0.092985258 -0.031004922 -0.024969121
0.095461264 -0.030812472 -0.025203586
0.097229809 -0.030992333 -0.02498446
0.09919738 -0.031074846 -0.024883939
0.10123131 -0.031071115 -0.024888482
0.10270976 -0.031079935 -0.024877736
0.10536083 -0.030918146 -0.025074841
0.10690641 -0.030863577 -0.025141323
0.10889051 -0.030887393 -0.025112307
0.11111514 -0.031015908 -0.02495574
0.11316455 -0.030945363 -0.025041688
0.11545377 -0.031028947 -0.024939859
0.11719471 -0.030948969 -0.025037289
0.11877634 -0.030906338 -0.025089229
0.12066849 -0.030875528 -0.025126761
0.12329487 -0.030991426 -0.024985565
0.12504087 -0.030775752 -0.025248324
0.12702173 -0.031263057 -0.024654638
0.12901829 -0.030943703 -0.025043705
0.13077411 -0.031099202 -0.024854261
0.13289258 -0.031016627 -0.024954865
0.13504496 -0.031086024 -0.024870319
0.13694249 -0.030913593 -0.02508039
0.1389128 -0.031135928 -0.024809523
0.14085984 -0.030902743 -0.025093611
0.14283977 -0.030880684 -0.025120486
0.14481632 -0.030914541 -0.025079237
0.14683256 -0.030948298 -0.025038103
0.14900334 -0.030785862 -0.025236005
0.15101704 -0.031199757 -0.024731752
0.1531091 -0.030897701 -0.025099751
0.15495987 -0.031337563 -0.024563873
0.15668263 -0.030904682 -0.025091244
0.1590137 -0.030843781 -0.025088504
0 -0.029144667 -0.025034459
0.16 -0.029129995 -0.025440695
0.16000001 -0.028381821 -0.024918731
0 -0.026901757 -0.025155926
0.15999998 -0.027012138 -0.024919307
0 -0.024867408 -0.024798961
0.15999998 -0.024790322 -0.025244456
0 -0.023460094 -0.024785075
0.15999998 -0.022983823 -0.025033355
0.16000001 -0.022588482 -0.025542786
0 -0.020585626 -0.024707934
0.16 -0.02092153 -0.024711808
0 -0.018829893 -0.024772272
0.16 -0.019517962 -0.025028318
0 -0.0175079 -0.025046896
0.15999998 -0.016870625 -0.024720533
0 -0.015061458 -0.024928091
0.15999998 -0.014764491 -0.025114477
0 -0.013261107 -0.025096297
0.15999998 -0.012813828 -0.025055826
0 -0.010937526 -0.025352299
0.16 -0.01094339 -0.024842683
0 -0.0085378569 -0.024677072
0.15999998 -0.0088433865 -0.025036387
0 -0.0071686697 -0.024773419
0.15999998 -0.00738787 -0.024632923
0.16000001 -0.0070850868 -0.025275279
0 -0.0051821596 -0.025017926
0.15999998 -0.0044890824 -0.025436359
0 -0.0033618051 -0.025042599
0.15999998 -0.0029757328 -0.024936048
0 -0.00087074836 -0.024812877
0.15999998 -0.00086876238 -0.024864489
0 0.0010522153 -0.025401343
0.15999998 0.0012719801 -0.025157003
0 0.0029743144 -0.024877375
0.15999998 0.0030594908 -0.025029164
0 0.0051768804 -0.024829919
0.15999998 0.004855596 -0.025121929
0 0.0066124396 -0.024702277
0.15999998 0.0072210738 -0.024967134
0 0.0089833355 -0.024908127
0.16 0.0093641989 -0.025551362
0 0.011210836 -0.025015125
0.15999998 0.01132723 -0.02525018
0 0.012679059 -0.024997683
0.16 0.013266036 -0.024742134
0 0.015274838 -0.025264328
0.15999998 0.014875963 -0.024622025
0 0.017045269 -0.025397401
0.16 0.017024899 -0.025009455
0 0.019033667 -0.025384801
0.16 0.019508898 -0.024806809
0 0.02097765 -0.025027936
0.15999998 0.020446263 -0.024994656
0 0.023028471 -0.024993625
0.15999998 0.023062769 -0.025036024
0.16000001 0.023507167 -0.02449362
0 0.024666859 -0.025117507
0.15999998 0.024912728 -0.024985891
0 0.026781552 -0.024844021
0.15999998 0.027252201 -0.025119085
0 0.029057335 -0.024863292
0.15999998 0.029328717 -0.02474813
0.00090389297 0.030863618 -0.024724178
0.0028497768 0.031121038 -0.024827661
0.0049891928 0.030767573 -0.025258282
0.0070021362 0.03091272 -0.02508145
0.0086420029 0.031195598 -0.024736827
0.010807651 0.031092057 -0.024862971
0.01270252 0.030938622 -0.025049897
0.014937973 0.031010091 -0.024962828
0.01670843 0.030970151 -0.025011491
0.01877561 0.031037388 -0.024929572
0.020651793 0.03102486 -0.024944833
0.023068909 0.03098931 -0.024988146
0.024511043 0.030969666 -0.025012083
0.027188892 0.030964721 -0.025018096
0.028986204 0.031064104 -0.024897024
0.031041635 0.03082747 -0.025185313
0.032956198 0.030969789 -0.025011929
0.034736451 0.030940427 -0.025047699
0.037223555 0.031277955 -0.024636492
0.038893793 0.031190194 -0.024743404
0.040971581 0.030895153 -0.025102854
0.043138288 0.030808982 -0.025207838
0.044952065 0.031037599 -0.024929315
0.047015302 0.031024208 -0.024945632
0.048956227 0.030833157 -0.025178384
0.050769616 0.030814499 -0.025201114
0.052742388 0.030934166 -0.025055327
0.055070534 0.031184878 -0.024749886
0.057010617 0.031052431 -0.024911249
0.058832888 0.030825952 -0.025187159
0.060635895 0.030937696 -0.025051026
0.063116483 0.03093534 -0.025053894
0.06483008 0.030918928 -0.025073892
0.067056969 0.030795721 -0.025223993
0.068895034 0.030820817 -0.025193417
0.071339354 0.030966492 -0.025015946
0.073073059 0.030691305 -0.025351202
0.075062066 0.031094301 -0.024860237
0.077041574 0.030807294 -0.025209896
0.07887131 0.030959442 -0.025024533
0.081168637 0.03114121 -0.024803089
0.083091162 0.031188373 -0.024745625
0.085123308 0.031054925 -0.024908207
0.087307215 0.030866072 -0.025138289
0.088934191 0.030857921 -0.025148213
0.091265894 0.031349812 -0.024548942
0.092818633 0.030914776 -0.025078949
0.09508834 0.031266876 -0.024649991
0.096976109 0.030926507 -0.02506466
0.099023692 0.030842988 -0.025166407
0.10061094 0.031026481 -0.024942858
0.10304328 0.031171605 -0.024766054
0.10481124 0.03108052 -0.024877023
0.10680494 0.030906476 -0.025089059
0.10931192 0.030977566 -0.025002455
0.11128233 0.031138152 -0.024806811
0.11281957 0.03098665 -0.024991384
0.11489133 0.030897809 -0.025099615
0.11706027 0.030730665 -0.025303252
0.11891485 0.030986818 -0.024991179
0.12110448 0.031215653 -0.024712393
0.1229893 0.031262018 -0.024655903
0.12496228 0.03097884 -0.025000894
0.12687831 0.031267285 -0.024649492
0.12923011 0.031238385 -0.024684701
0.13125136 0.03074537 -0.025285341
0.13311173 0.030990595 -0.02498658
0.1354114 0.0309129 -0.025081236
0.13734908 0.030859182 -0.025146673
0.13938792 0.030930242 -0.02506011
0.1409951 0.030942261 -0.02504546
0.14296466 0.031073622 -0.024885423
0.1447129 0.030860066 -0.0251456
0.14716259 0.030984974 -0.024993425
0.14907424 0.030888833 -0.025110556
0.15108944 0.031070573 -0.024889139
0.15336259 0.031026728 -0.024942556
0.15504104 0.031180121 -0.024755685
0.15716042 0.031118888 -0.024830278
0.15928055 0.030844565 -0.025006447
0.00092279055 -0.032586519 -0.022981012
0.003177396 -0.03273429 -0.022855429
0.0047711967 -0.032708082 -0.022894181
0.0070172073 -0.032897204 -0.022656957
0.0090268822 -0.032818515 -0.022742892
0.010793787 -0.032747384 -0.02282762
0.013476276 -0.032696813 -0.02288782
0.014898055 -0.03270131 -0.022901658
0.01676322 -0.032737058 -0.022851864
0.019248545 -0.03283022 -0.022726497
0.021122148 -0.032527361 -0.02311435
0.023040554 -0.032701518 -0.02289509
0.025207607 -0.032896947 -0.022663953
0.027225699 -0.032555714 -0.023079809
