# .PCD v0.7 - Point Cloud Data file format
VERSION 0.7
FIELDS x y z
SIZE 4 4 4
TYPE F F F
COUNT 1 1 1
WIDTH 1329
HEIGHT 1
VIEWPOINT 0 0 0 1 0 0 0
POINTS 1329
DATA ascii
-0.029979913 0.013224579 -0.017920041
0.029973313 0.01366883 -0.017853204
0.030508811 0.013136536 -0.016894678
-0.030611098 0.01504011 -0.016875152
0.030474607 0.015133468 -0.016955899
-0.030640421 0.016956845 -0.016815478
0.029951507 0.016938047 -0.017892238
0.030470241 0.016857175 -0.016963717
-0.030570945 0.0190823 -0.016960774
-0.029949708 0.018589167 -0.017964737
0.029916132 0.019279111 -0.017955558
0.030433482 0.019136878 -0.017029511
-0.030542662 0.020916339 -0.016994772
-0.029966719 0.020857124 -0.017939566
0.030587919 0.02083043 -0.016753072
-0.030498978 0.022997521 -0.017082276
-0.029971555 0.022536371 -0.017932408
0.029932695 0.023048896 -0.017925914
0.030655928 0.023119533 -0.016631342
-0.030590478 0.024782075 -0.016934618
0.029944431 0.025316186 -0.017904907
0.03045376 0.024889005 -0.016993219
-0.030554503 0.027351506 -0.016969727
-0.029962599 0.02724834 -0.017945662
0.030458173 0.026529709 -0.016985314
-0.030638417 0.028996965 -0.016807308
-0.029964721 0.029261762 -0.017942522
0.029969025 0.028073214 -0.017860882
0.030442741 0.029059868 -0.017012935
-0.030591767 0.03106086 -0.016924823
-0.029938325 0.031051518 -0.017981585
0.029990066 0.030968189 -0.017823219
0.030610193 0.031161051 -0.016713208
-0.030669803 0.033103731 -0.016745327
-0.029973643 0.033512875 -0.017929319
0.029921643 0.032944545 -0.017945696
0.030499104 0.032873396 -0.016912051
-0.030641852 0.035396442 -0.016837047
-0.029974751 0.035738692 -0.017927676
0.030570948 0.035209503 -0.016783452
-0.03052173 0.037057158 -0.017023936
0.029993061 0.037352536 -0.017817857
0.030551005 0.036983788 -0.016819146
-0.030622883 0.03892741 -0.016869048
-0.029978778 0.038897041 -0.01792172
0.029921722 0.038764331 -0.01794556
0.030494137 0.038977627 -0.016920945
-0.030525347 0.04074562 -0.017015496
-0.029985551 0.041867152 -0.017911697
0.02998241 0.040293504 -0.017836925
0.03051661 0.040961038 -0.016880713
-0.030638661 0.042928286 -0.016818956
-0.029930376 0.043898776 -0.017993346
0.029925227 0.043405324 -0.017939281
0.030493958 0.043133713 -0.016921263
-0.030491877 0.044948969 -0.017093889
0.029994648 0.045140386 -0.017815018
0.030513601 0.044956483 -0.016886104
-0.030476522 0.047093935 -0.017118985
0.029935904 0.047435351 -0.01792017
0.030590391 0.04697372 -0.016748646
-0.030494362 0.048850123 -0.01711615
-0.029994059 0.04895772 -0.017899107
0.029927276 0.04827445 -0.017935608
0.030418789 0.048869941 -0.017055815
-0.030552747 0.051129419 -0.016965697
0.030509641 0.050978571 -0.016893191
-0.030582858 0.052962132 -0.016959488
0.029941179 0.053055495 -0.017910726
0.030459702 0.052972153 -0.016982574
-0.030565653 0.055135705 -0.016961247
0.029933887 0.055205315 -0.01792378
0.03054595 0.055275284 -0.016828202
-0.030515173 0.057105847 -0.017048197
-0.029939432 0.056402072 -0.017979946
0.029921813 0.056362864 -0.017945392
0.030423153 0.056781679 -0.017047998
-0.030527642 0.058956783 -0.017022457
-0.029960684 0.059963398 -0.017948495
0.029943243 0.059354454 -0.017907031
0.030512528 0.05902116 -0.016888024
-0.030566592 0.060856335 -0.016942613
0.029939607 0.06036092 -0.017913541
0.030649571 0.060666304 -0.01664272
-0.030527018 0.063079864 -0.017026164
-0.029938767 0.06315551 -0.017980929
0.029933577 0.063265517 -0.017924335
0.030526515 0.062980063 -0.016862983
-0.030444667 0.064840905 -0.017177692
-0.029947829 0.064797305 -0.017967522
0.030570399 0.064804897 -0.016784435
-0.030614186 0.066911288 -0.016866233
-0.029963652 0.066161878 -0.017944103
0.029955905 0.066753589 -0.01788437
0.030522684 0.066988446 -0.016869849
-0.030547529 0.068962485 -0.017008277
-0.02997688 0.068085022 -0.017924525
0.029924294 0.068354353 -0.01794095
0.030369282 0.06889721 -0.017144438
-0.030575743 0.071099952 -0.016895732
-0.029951401 0.070602283 -0.017962234
0.029913567 0.071149006 -0.01796015
0.030516366 0.070969351 -0.016881157
-0.030562418 0.072833575 -0.017004054
-0.029944364 0.073631585 -0.017972648
0.029969214 0.073298931 -0.017860545
0.03049903 0.073133588 -0.016912185
-0.030651398 0.075234048 -0.01678621
0.029928742 0.074863009 -0.017932989
0.030473348 0.074973404 -0.016958153
-0.030610157 0.077025853 -0.016852569
0.029946066 0.077016599 -0.017901979
0.030506823 0.076972239 -0.016898233
-0.03054766 0.079124548 -0.016825411
-0.028889975 0.079975389 -0.017442646
-0.026790461 0.079999991 -0.017218949
-0.02485192 0.079999998 -0.017251676
-0.022891648 0.079999991 -0.017122554
-0.021076083 0.079999998 -0.016972562
-0.019091822 0.079999998 -0.01680805
-0.016970629 0.080000013 -0.016875321
-0.014862228 0.079999991 -0.016969152
-0.0129259 0.079999998 -0.017111255
-0.011278691 0.079999991 -0.016977886
-0.0090350471 0.079999998 -0.016904904
-0.0068802536 0.079999991 -0.016690869
-0.0049709273 0.079999991 -0.016842084
-0.0028557114 0.080000006 -0.017062264
-0.00092180487 0.080000006 -0.017163027
0.0010216488 0.079999998 -0.017124906
0.0028530047 0.079999998 -0.016908463
0.0050075478 0.080000006 -0.017171923
0.0072409716 0.079999991 -0.017129183
0.0091811772 0.080000013 -0.016819075
0.010986291 0.080000006 -0.016959069
0.012917113 0.079999998 -0.016748542
0.015000479 0.079999991 -0.017235858
0.017044757 0.079999991 -0.017060149
0.018938955 0.079999991 -0.016883897
0.020955713 0.079999998 -0.017178025
0.023072165 0.080000006 -0.017082984
0.024790831 0.079999991 -0.016972329
0.027251286 0.079999998 -0.017093895
0.029074829 0.079916343 -0.017051701
0.03050505 0.079120845 -0.016847845
-0.029886937 0.080000006 -0.017387293
-0.023134246 0.080000006 -0.017769912
-0.021121256 0.080000006 -0.017006265
-0.03109326 0.00033985832 -0.014899904
-0.028950462 0 -0.015175796
-0.027043741 0 -0.014836356
-0.025049558 0 -0.014809765
-0.022921409 0 -0.01507348
-0.021173162 0 -0.015137881
-0.019274052 0 -0.015077271
-0.017036729 0 -0.014709818
-0.015060882 0 -0.014796292
-0.013167358 0 -0.014890508
-0.011213917 0 -0.015006227
-0.0090573747 0 -0.015054465
-0.0067215445 0 -0.01489983
-0.0047224434 0 -0.015265735
-0.0030750276 0 -0.015116224
-0.0010792871 0 -0.014842903
0.001124418 0 -0.014891517
0.0031400449 0 -0.014930783
0.0052073547 0 -0.015223894
0.007035668 0 -0.015308231
0.0091224676 0 -0.014807764
0.010987462 0 -0.015000566
0.013092085 0 -0.014979474
0.01477456 0 -0.015096563
0.016950089 0 -0.015307318
0.019028878 0 -0.014951957
0.021195885 0 -0.014885649
0.023009265 0 -0.014974094
0.024870597 0 -0.015028545
0.026886774 0 -0.015200943
0.029086897 0 -0.015073023
0.031032145 0.00049672165 -0.014949577
-0.031499807 0.003066913 -0.014979682
0.031509481 0.0031087967 -0.015091642
0.03200626 0.0032332039 -0.014096459
-0.031499226 0.0050238008 -0.014980978
0.031446744 0.0048951269 -0.01521215
0.032020587 0.004695592 -0.014055904
-0.031432003 0.0070079276 -0.015129632
0.031478122 0.0069363802 -0.015147479
-0.031481788 0.0088583194 -0.015019537
0.031566277 0.0088602901 -0.014999225
-0.031539049 0.011270924 -0.014892911
0.03159342 0.011303 -0.014942272
0.032034066 0.010185041 -0.014017764
-0.031504937 0.013070975 -0.014968348
0.031662434 0.013040275 -0.014819304
0.032021284 0.012903261 -0.014053935
-0.031557288 0.01484879 -0.014852583
0.031616867 0.015072701 -0.01489218
-0.031438041 0.016973507 -0.015116274
0.031566668 0.016951526 -0.014991663
0.032016605 0.016561726 -0.014067181
-0.031390756 0.019024929 -0.015220829
0.031460833 0.018779635 -0.015180227
0.032004427 0.019819442 -0.014101649
-0.031477049 0.021244645 -0.015030011
0.031496242 0.020886542 -0.015121085
0.03202419 0.020031823 -0.014045707
-0.031535435 0.023109796 -0.014900895
0.03125488 0.022865413 -0.015559226
0.03202188 0.02323088 -0.014052261
-0.031484671 0.025059137 -0.015013151
0.031536151 0.025261298 -0.015055191
0.032008268 0.024586204 -0.014090775
-0.031565972 0.026916718 -0.014833373
0.031328954 0.027122848 -0.015426638
0.032010015 0.027403116 -0.014085835
-0.031542812 0.028774438 -0.014884589
0.031479061 0.028995521 -0.015154165
0.032027554 0.028224062 -0.014036193
-0.031479672 0.030844241 -0.015024211
0.031612758 0.031106379 -0.014915027
0.032001846 0.031998456 -0.014108956
-0.031506222 0.032859322 -0.014965499
0.031548016 0.033077501 -0.015017875
-0.031535301 0.035014525 -0.0149012
0.03150456 0.034811798 -0.015100838
0.032025993 0.034415502 -0.014040616
-0.031493369 0.036950249 -0.014993922
0.031555939 0.036891907 -0.015015724
0.032023136 0.037433844 -0.014048697
-0.031420846 0.03891689 -0.015154293
0.031569339 0.039098382 -0.014981649
0.032028623 0.039049245 -0.01403317
-0.031414986 0.040758856 -0.015167263
0.031588048 0.041116919 -0.01494632
0.032031223 0.040832993 -0.014025806
-0.031404417 0.043228772 -0.015190634
0.031481266 0.043067865 -0.015149485
-0.031376544 0.045418721 -0.015252265
0.031566542 0.044979785 -0.014985026
-0.03141892 0.047015335 -0.015158556
0.031478193 0.047034319 -0.015152191
0.032019235 0.046448037 -0.014059747
-0.031592939 0.049002297 -0.014773737
0.031433798 0.048723392 -0.015234479
-0.031510781 0.051058486 -0.014955413
0.031572852 0.050937571 -0.014973617
-0.031547986 0.052904028 -0.014873135
0.031471886 0.053192426 -0.015170788
-0.031492677 0.055158705 -0.014995464
0.031478897 0.054762125 -0.015158243
-0.031598054 0.057049617 -0.014762429
0.031482168 0.056749258 -0.015152379
0.03201152 0.056326151 -0.014081579
-0.031495351 0.059064928 -0.01498953
0.031471841 0.058789864 -0.015167828
-0.031411424 0.060964614 -0.015175125
0.031508151 0.060836587 -0.015096193
-0.031499177 0.062863559 -0.014981078
0.031544734 0.063144766 -0.0150303
0.032028046 0.0625505 -0.014034799
-0.031647839 0.064828679 -0.014652331
0.031538319 0.064992152 -0.015044928
0.032026164 0.065559328 -0.014040127
-0.031475365 0.066807091 -0.015033729
0.031439815 0.067119524 -0.015222265
0.032018553 0.067276634 -0.01406166
-0.031468142 0.068942972 -0.015049702
0.031625703 0.068941444 -0.014889225
0.032026142 0.06841366 -0.01404019
-0.031355437 0.071152627 -0.015298941
0.031388249 0.0708092 -0.015320486
0.032030057 0.070256434 -0.014029108
-0.031501662 0.07310693 -0.01497558
0.031588409 0.072811835 -0.014955631
0.032021586 0.072284564 -0.014053089
-0.031455927 0.075096555 -0.015076719
0.031369459 0.075002536 -0.015348692
-0.031480927 0.077063024 -0.015021439
0.031496368 0.0772053 -0.015121285
0.032010004 0.076819316 -0.014085859
-0.031180585 0.079476632 -0.01516084
-0.028953217 0.080000006 -0.014844283
-0.027137214 0.079999991 -0.01534304
-0.025198551 0.079999991 -0.015091674
-0.022934401 0.079999998 -0.015034324
-0.020859003 0.079999991 -0.01494208
-0.019078355 0.079999991 -0.015077495
-0.017103372 0.080000006 -0.015022419
-0.015285118 0.079999991 -0.015164226
-0.013272689 0.080000006 -0.015173594
-0.010945071 0.079999998 -0.015268612
-0.0088275084 0.079999991 -0.015287605
-0.0069069015 0.080000013 -0.014853579
-0.0049754321 0.079999998 -0.014826683
-0.0028388368 0.079999991 -0.014898918
-0.0008217711 0.079999998 -0.014764157
0.00076456973 0.079999998 -0.015020158
0.0029600102 0.080000006 -0.014813221
0.0050008306 0.079999991 -0.014951711
0.0071268114 0.079999998 -0.015033249
0.0089793941 0.080000013 -0.01502027
0.011066535 0.079999991 -0.015418951
0.012958532 0.079999991 -0.01506508
0.015013278 0.079999998 -0.014940045
0.016960563 0.079999991 -0.015386921
0.018988922 0.079999991 -0.01485158
0.020843383 0.079999998 -0.01487738
0.023264131 0.079999998 -0.014542806
0.024995025 0.079999998 -0.015269301
0.027035551 0.079999991 -0.014902349
0.029023696 0.079999998 -0.015157457
0.031260613 0.079230301 -0.014963469
0.032019518 0.078357145 -0.014058943
0.013986709 0.080000006 -0.014025918
0.015589318 0.080000006 -0.015697688
0.017564941 0.080000006 -0.01411974
0.022989672 0.080000006 -0.014498506
0.03081945 0.080000006 -0.014372805
-0.032389354 0.00065829896 -0.012987554
-0.030975103 0 -0.013197696
-0.029196538 0 -0.012973427
-0.027043667 0 -0.012934939
-0.025001643 0 -0.013058392
-0.023048701 0 -0.013098269
-0.021111162 0 -0.012793553
-0.018926904 0 -0.013100462
-0.017112415 0 -0.013062602
-0.014686511 0 -0.012823864
-0.013025124 0 -0.01287003
-0.010816775 0 -0.012830062
-0.0091545759 0 -0.012778814
-0.0068158796 0 -0.013008138
-0.0053317882 0 -0.01292448
-0.0029766839 0 -0.013176829
-0.0011903391 0 -0.012880614
0.00096016761 0 -0.013150823
0.003237305 0 -0.012929683
0.0050205989 0 -0.012981197
0.0069870935 0 -0.013003806
0.0089770053 0 -0.013051542
0.010924812 0 -0.013008901
0.012803967 0 -0.012987878
0.014819969 0 -0.013163449
0.017016172 0 -0.013095035
0.018683748 0 -0.013320141
0.02117561 0 -0.013166031
0.022890678 0 -0.01305372
0.024984716 0 -0.013178418
0.0269158 0 -0.013088579
0.028817663 0 -0.013203273
0.030757988 0 -0.012830928
0.032322388 0.00067065144 -0.012956167
-0.032554954 0.0031309 -0.012646369
0.032408956 0.00291076 -0.012956784
-0.032465328 0.0051793642 -0.012844564
0.032381296 0.0052674217 -0.013035057
-0.032412764 0.0069228858 -0.012960796
-0.031994116 0.0063557574 -0.013886582
0.032438107 0.0068899947 -0.012874264
-0.032568716 0.00888234 -0.012615938
0.032384425 0.0090611214 -0.013026196
-0.032413367 0.011193272 -0.012959475
-0.03197103 0.010885086 -0.013937643
0.032406874 0.011062143 -0.012962666
-0.032406405 0.013317688 -0.012974868
-0.031992737 0.013093919 -0.013889631
0.032341678 0.013068814 -0.013147182
-0.032419633 0.014900423 -0.012945626
0.032347102 0.014716312 -0.013131844
-0.032372903 0.017087776 -0.013048958
-0.031966694 0.017160181 -0.013947222
0.032390207 0.016712029 -0.013009838
-0.032440916 0.018855665 -0.012898555
0.032338008 0.018915309 -0.013157566
-0.032425597 0.020827707 -0.012932421
0.032422252 0.021262554 -0.01291915
-0.032435894 0.0228754 -0.012909655
0.032369807 0.022893803 -0.013067577
-0.032496337 0.025183609 -0.012775994
-0.031949751 0.025265679 -0.013984695
0.032405805 0.025027744 -0.012965701
-0.032477912 0.027062744 -0.012816733
-0.031982291 0.027165214 -0.01391274
0.032420248 0.02699719 -0.012924811
-0.032445867 0.029090399 -0.012887595
0.03243145 0.029125918 -0.012893124
-0.032343507 0.031082151 -0.013113954
0.032284386 0.030805225 -0.013309323
-0.032502141 0.033204656 -0.012763159
-0.031964224 0.032901913 -0.013952686
0.032392733 0.033087242 -0.013002696
-0.032363806 0.034939654 -0.013069055
-0.031975668 0.034611609 -0.013927388
0.032443538 0.034908287 -0.012858904
-0.032414243 0.037016559 -0.012957524
-0.031987365 0.036847137 -0.013901516
0.032419585 0.036940482 -0.012926687
-0.032461405 0.039213821 -0.012853239
0.032450765 0.039069943 -0.012838454
-0.032466825 0.04081852 -0.012841252
-0.031959876 0.040844858 -0.013962304
0.032449622 0.04124628 -0.012841683
-0.032418493 0.043021671 -0.012948135
-0.031982251 0.043670084 -0.013912826
0.032425225 0.04312247 -0.012910729
-0.032390155 0.045128964 -0.013010798
0.032345407 0.044979107 -0.01313664
-0.032370761 0.047153782 -0.013053681
0.032402422 0.047064133 -0.012975266
-0.03248696 0.049145073 -0.01279672
-0.031996083 0.048635248 -0.01388224
0.032360788 0.048907869 -0.013093109
-0.032364402 0.050967354 -0.013067747
-0.031953298 0.051740736 -0.013976855
0.032329213 0.051014729 -0.013182461
-0.032452453 0.053102542 -0.01287303
-0.031947929 0.053671692 -0.013988724
0.032357872 0.052900538 -0.01310136
-0.032372251 0.055312794 -0.013050385
-0.031993315 0.054206267 -0.013888354
0.032337088 0.055099811 -0.01316017
-0.032350596 0.056905288 -0.013098265
-0.031967875 0.056994621 -0.013944616
0.032385904 0.057257932 -0.013022019
-0.032562509 0.059076358 -0.012629653
-0.031997047 0.059911322 -0.013880108
0.032384012 0.059117567 -0.013027379
-0.032436706 0.060975824 -0.012907851
-0.031943653 0.060839791 -0.013998179
0.032359444 0.061413217 -0.013096913
-0.032379117 0.063087076 -0.013035202
-0.03198548 0.063301913 -0.013905686
0.032367054 0.062975965 -0.013075375
-0.032442566 0.065149121 -0.012894901
0.032400735 0.064666271 -0.012980036
-0.032335214 0.067113936 -0.013132285
-0.031966969 0.066538937 -0.013946617
0.032415602 0.067149706 -0.012937962
-0.03259499 0.068955511 -0.012557837
-0.031974148 0.068878233 -0.013930745
0.032462191 0.068836257 -0.012806115
-0.032466456 0.071260802 -0.012842068
-0.031988762 0.071453251 -0.013898425
0.032337412 0.070839681 -0.013159255
-0.032388926 0.072840318 -0.013013516
-0.031990591 0.073859178 -0.013894379
0.032381978 0.07307782 -0.013033127
-0.032446992 0.07485649 -0.012885108
0.032489154 0.07518778 -0.012729808
-0.032366265 0.076735295 -0.013063621
-0.031971302 0.076975584 -0.013937037
0.032396682 0.076997735 -0.012991523
-0.032486886 0.079051897 -0.012713755
-0.030969981 0.079999991 -0.013057901
-0.029129375 0.080000006 -0.013009908
-0.026993979 0.079999998 -0.012859502
-0.025025582 0.079999991 -0.012796454
-0.022947581 0.080000006 -0.012955609
-0.021107808 0.079999998 -0.013218268
-0.018940238 0.079999991 -0.012598293
-0.017157989 0.079999991 -0.013175301
-0.014920878 0.079999998 -0.013154818
-0.012900837 0.079999991 -0.013124923
-0.010810449 0.079999991 -0.012930534
-0.0089164423 0.080000006 -0.012932855
-0.0069089625 0.079999991 -0.012903444
-0.005362933 0.079999998 -0.01285389
-0.0028117048 0.079999991 -0.013087746
-0.0009863592 0.080000006 -0.013000386
0.0010028036 0.080000013 -0.01295894
0.003315568 0.079999991 -0.013347324
0.0050335783 0.079999998 -0.013238654
0.0070742127 0.079999991 -0.012698592
0.0089967437 0.079999991 -0.012942382
0.010859377 0.079999991 -0.01291116
0.012963007 0.080000006 -0.01316539
0.014941635 0.079999998 -0.013055445
0.017193453 0.079999991 -0.013285622
0.01926681 0.079999991 -0.012978486
0.020749927 0.079999991 -0.012917488
0.022972414 0.079999991 -0.013172172
0.025078921 0.079999991 -0.012863862
0.026818728 0.080000006 -0.01310954
0.029020736 0.080000006 -0.013019702
0.031234469 0.080000013 -0.013086316
0.032394465 0.079265647 -0.01279343
-0.029164489 0.080000006 -0.012184257
-0.026222091 0.080000006 -0.012137853
-0.025518989 0.080000006 -0.012098379
-0.0043175248 0.080000006 -0.012902774
-0.032901913 0.00073712686 -0.011042438
-0.030638434 0 -0.010798726
-0.029230049 0 -0.011115694
-0.027093621 0 -0.010892735
-0.025138035 0 -0.011149811
-0.023062896 0 -0.01092318
-0.021111451 0 -0.010885824
-0.018708054 0 -0.011013612
-0.017056186 0 -0.01107011
-0.015063589 0 -0.011138055
-0.012662772 0 -0.011257809
-0.011021337 0 -0.01082837
-0.0089870226 0 -0.011002908
-0.0071254061 0 -0.011244883
-0.0048843101 0 -0.010839419
-0.0030018755 0 -0.010926928
-0.00091782736 0 -0.010932832
0.00098856515 0 -0.010964591
0.003144999 0 -0.01131001
0.0050263316 0 -0.011141702
0.0069493414 0 -0.011047089
0.0087583503 0 -0.011100911
0.010915243 0 -0.011002132
0.013079159 0 -0.01091578
0.015211915 0 -0.01094126
0.016964652 0 -0.010777178
0.018872282 0 -0.011019216
0.021043198 0 -0.010724477
0.023095885 0 -0.010961257
0.025001731 0 -0.011207455
0.026868265 0 -0.011002108
0.02885356 0 -0.010868138
0.030879002 0 -0.011166074
0.032969758 0.00081314211 -0.010918834
-0.033191346 0.003120343 -0.010908869
0.033095807 0.0028067697 -0.011012903
-0.033111915 0.0048728473 -0.011195236
0.033139613 0.0052010757 -0.010888921
-0.033160035 0.0069771297 -0.011007704
0.033034228 0.0068960236 -0.011187174
-0.033147253 0.0093526281 -0.011076099
0.033104986 0.0088219903 -0.010986911
-0.033098217 0.0109625 -0.011261767
0.033105969 0.011226505 -0.010984126
-0.03308776 0.01297658 -0.011264306
0.033107787 0.013013587 -0.010978987
-0.033214219 0.01496344 -0.010836023
0.03306362 0.015012462 -0.011103992
-0.033219207 0.016835898 -0.01080544
0.033110067 0.017163416 -0.010972542
-0.033172272 0.019023845 -0.010981038
0.033018563 0.019175733 -0.011231512
-0.033162739 0.021047259 -0.011001361
0.033075184 0.021062292 -0.011071252
-0.033194687 0.022887491 -0.010891789
0.033021074 0.023063639 -0.011224406
-0.033137504 0.025184285 -0.01110383
0.033135604 0.024757106 -0.010900266
-0.033184558 0.027106032 -0.010946423
0.033104457 0.027065478 -0.010988409
-0.033112161 0.028927622 -0.01117597
0.033123277 0.029173259 -0.010935144
-0.033130031 0.030961022 -0.011139399
0.033130962 0.031119803 -0.010913406
-0.033225309 0.032851215 -0.010785103
0.033187054 0.033007257 -0.010754648
-0.033120833 0.035108052 -0.011171411
0.033066839 0.03499189 -0.011094875
-0.033123981 0.037072342 -0.011154612
0.03304968 0.037040513 -0.011143441
-0.033125862 0.039014284 -0.011147828
0.033114612 0.039131053 -0.010959677
-0.033177525 0.040989675 -0.010950109
0.033091474 0.040752605 -0.011025151
-0.033188581 0.043188218 -0.010917526
0.033064835 0.043172687 -0.011100547
-0.033170484 0.044861052 -0.011008507
0.033038396 0.044735063 -0.011175368
-0.033186086 0.047245085 -0.010944657
0.033042241 0.047002353 -0.011164499
-0.033164978 0.049079761 -0.011003336
0.033111922 0.0490884 -0.010967282
-0.033159133 0.051140077 -0.01105271
0.033102844 0.051082954 -0.010992988
-0.033162609 0.052808721 -0.011006863
0.033056233 0.053086549 -0.011124888
-0.033146098 0.055148624 -0.011090226
0.033011131 0.055054232 -0.011252547
-0.033149019 0.057202909 -0.011051798
0.033105306 0.056961179 -0.010986012
-0.033155825 0.058942519 -0.011022683
0.033064924 0.059012663 -0.011100305
-0.033184528 0.060940716 -0.010942576
0.033125203 0.061039858 -0.010929714
-0.033249382 0.062735587 -0.010706156
0.033067346 0.062910691 -0.01109345
-0.033141166 0.064997651 -0.011103041
0.033047143 0.064919211 -0.01115062
-0.0330626 0.067416593 -0.011347559
0.033109903 0.067099273 -0.010973
-0.033224028 0.068765543 -0.010798681
0.033032298 0.068969898 -0.011192627
-0.033174377 0.070963524 -0.010979658
0.033116687 0.070924103 -0.010953802
-0.03316569 0.073142543 -0.01100965
0.033082459 0.073003531 -0.011050672
-0.033134364 0.074958101 -0.011123987
0.033150896 0.074706547 -0.010856966
-0.033127677 0.077007882 -0.011141061
0.033111405 0.077036947 -0.010968754
-0.032917947 0.079269931 -0.010889398
-0.031311255 0.079999991 -0.010847475
-0.028892618 0.079999998 -0.010949689
-0.026853915 0.080000006 -0.010881018
-0.02474618 0.079999991 -0.010932047
-0.02285208 0.079999991 -0.011177539
-0.020911887 0.079999998 -0.010711284
-0.018749917 0.080000006 -0.010851277
-0.01696223 0.079999998 -0.010963146
-0.014885267 0.079999991 -0.010665894
-0.012903701 0.079999998 -0.010951989
-0.011232602 0.079999998 -0.010808967
-0.008914032 0.080000013 -0.010976866
-0.0070099384 0.079999991 -0.011300856
-0.0050900797 0.079999991 -0.011069453
-0.0033164632 0.080000006 -0.011148147
-0.0010818437 0.079999998 -0.010899355
0.0008903842 0.079999991 -0.011055548
0.0032450897 0.079999991 -0.011282039
0.0050166748 0.079999991 -0.010729039
0.0069543794 0.079999991 -0.010595617
0.0090465788 0.079999998 -0.011070888
0.011131374 0.079999991 -0.011128792
0.012959524 0.079999991 -0.011096749
0.014950356 0.080000013 -0.01102111
0.01704183 0.079999998 -0.010992252
0.018808601 0.079999998 -0.010681625
0.021343682 0.080000006 -0.011069817
0.02293529 0.079999991 -0.011305219
0.024705239 0.080000013 -0.010984914
0.026900856 0.080000006 -0.011114043
0.028631609 0.079999991 -0.011289279
0.031202653 0.079999991 -0.010934032
0.032902502 0.079328723 -0.011129564
0.011892813 0.080000006 -0.010002017
-0.033469994 0.00052465341 -0.0088618789
-0.031214142 0 -0.0091075478
-0.029109629 0 -0.009128551
-0.026925765 0 -0.0088452194
-0.024973763 0 -0.0092520341
-0.023093838 0 -0.0089716604
-0.021014383 0 -0.0090541085
-0.019120947 0 -0.0090476675
-0.017210331 0 -0.0092323702
-0.01509808 0 -0.0091295401
-0.013064611 0 -0.0088757621
-0.010760487 0 -0.008927945
-0.0091095641 0 -0.0090437718
-0.0070770197 0 -0.0090678083
-0.0049987272 0 -0.0088827573
-0.0029898598 0 -0.0091031482
-0.0012676566 0 -0.0088026999
0.0006023465 0 -0.0090594683
0.0032014581 0 -0.0089346319
0.0049051084 0 -0.0090447906
0.0068995249 0 -0.0090421261
0.0090863695 0 -0.0086345021
0.010834415 0 -0.0088585354
0.01287344 0 -0.0090607852
0.014909268 0 -0.0091846921
0.017011603 0 -0.0089997007
0.018960012 0 -0.0090130875
0.021116661 0 -0.0089226374
0.023102457 0 -0.0092188949
0.025161341 0 -0.0090999044
0.026865203 0 -0.0088848565
0.028833961 0 -0.0091630695
0.030749191 0 -0.0087274127
0.033426251 0.00063922297 -0.0089176642
-0.033717174 0.0030499792 -0.0089097312
0.033736687 0.003062234 -0.0091021955
-0.033698451 0.0049421126 -0.0089816144
0.033705026 0.0049482412 -0.0092341052
-0.033709422 0.0073810397 -0.0089394692
0.033776246 0.0071815625 -0.0090241274
-0.033697825 0.0088597862 -0.0089840274
0.033757783 0.0088975998 -0.0090615964
0.034002118 0.0089141997 -0.0080541046
-0.033590566 0.0112757 -0.0093959225
0.033737116 0.010891465 -0.0091563128
-0.033729024 0.012923412 -0.0088642072
0.033793729 0.012935185 -0.0089551518
-0.03365805 0.014903399 -0.0091367867
0.033746138 0.014995179 -0.0090843122
-0.033688117 0.017184302 -0.0090212757
0.033725247 0.017002411 -0.0091559822
0.03400844 0.017379342 -0.0080172503
-0.03366448 0.019280216 -0.0091120778
0.033810616 0.018718807 -0.0088852504
-0.033708397 0.021016259 -0.0089434246
0.033718679 0.020851146 -0.0092028137
0.03400781 0.020028943 -0.0080208946
-0.033634312 0.022930378 -0.0092279315
0.033752084 0.023083573 -0.0090812109
0.034008998 0.02377817 -0.0080139907
-0.033696502 0.025125477 -0.0089891218
0.033766948 0.02526045 -0.0090568038
0.034006905 0.0250143 -0.0080261789
-0.033573981 0.026589746 -0.0094596082
0.033790946 0.027369378 -0.0089893322
-0.033721916 0.029199023 -0.0088915136
0.033764817 0.029251516 -0.0090408605
-0.033717997 0.031000523 -0.0089065544
0.033790875 0.030901069 -0.0089571159
-0.033711541 0.032864567 -0.0089313546
0.033741619 0.032861557 -0.0091218213
0.034007225 0.032589681 -0.0080243237
-0.033718761 0.035088912 -0.0089036133
0.033692237 0.035162184 -0.0093236472
-0.033699758 0.036845636 -0.0089765983
0.033709627 0.037118021 -0.0092437258
0.034001313 0.037664402 -0.0080588069
-0.033669773 0.039165638 -0.0090917498
0.03380708 0.038996637 -0.0089076227
0.034008514 0.03979595 -0.0080168117
-0.033686411 0.041061103 -0.0090278611
0.033736527 0.041084751 -0.0091396039
-0.033642497 0.043009281 -0.0091964928
0.033798177 0.042953543 -0.0089301448
-0.03370668 0.045107294 -0.0089500351
0.033814982 0.044950657 -0.0088952407
-0.033628762 0.047102433 -0.0092492411
0.033684246 0.046849217 -0.0092877625
-0.033632305 0.049023826 -0.0092356456
0.033709802 0.049210448 -0.0092350496
-0.033766877 0.050887141 -0.0087188473
0.033753041 0.051223151 -0.0090785017
-0.033692416 0.053160429 -0.0090048062
0.033722743 0.052946113 -0.0092182197
0.034000374 0.053640947 -0.0080642859
-0.033691533 0.055261109 -0.0090081766
0.033762753 0.054966774 -0.0090457369
0.034000564 0.055638228 -0.0080631683
-0.033699095 0.0570831 -0.0089791454
0.033826914 0.057146531 -0.0088651367
0.03400949 0.056595247 -0.0080111288
-0.033696704 0.058789205 -0.0089883227
0.033802237 0.059170146 -0.0088903848
-0.033706214 0.061123818 -0.0089517888
0.033741139 0.061134312 -0.0091557279
0.03400638 0.060491465 -0.0080292709
-0.033683516 0.062829152 -0.0090389727
0.033760991 0.063098267 -0.0090734446
-0.033611551 0.064969294 -0.0093153352
0.033786904 0.06513238 -0.0089497752
0.034002781 0.064323984 -0.0080502592
-0.03367338 0.066969275 -0.0090779038
0.033778705 0.067134827 -0.009014965
0.034005899 0.06706816 -0.0080320481
-0.033663023 0.068829224 -0.0091176732
0.033764347 0.068884574 -0.009024499
-0.033742744 0.071011536 -0.0088115195
0.033766236 0.071221493 -0.0090777101
0.034000196 0.070597701 -0.0080653243
-0.03364516 0.073080629 -0.0091862818
0.033734336 0.072987504 -0.0091584073
-0.033688486 0.0749669 -0.0090198899
0.033697706 0.074952297 -0.0092423698
-0.033727903 0.076569088 -0.0088685164
0.033713169 0.076857783 -0.0092090424
-0.033432361 0.079236701 -0.0089908205
-0.031000353 0.080000006 -0.0088298973
-0.029047623 0.080000006 -0.0090584625
-0.027145019 0.080000006 -0.0090445876
-0.025327232 0.079999991 -0.0093163997
-0.022992522 0.079999998 -0.0092004295
-0.020939931 0.079999991 -0.0092672706
-0.018923178 0.079999998 -0.0089802481
-0.016914163 0.080000006 -0.0089781033
-0.0148574 0.079999998 -0.0091764098
-0.013036016 0.079999998 -0.0088997763
-0.011016892 0.079999998 -0.0088403607
-0.0088935662 0.080000006 -0.0090054888
-0.0069687008 0.079999998 -0.0088091791
-0.0051322216 0.079999991 -0.0089980699
-0.00319415 0.079999991 -0.008694048
-0.00092177722 0.080000006 -0.0088318102
0.00099563389 0.080000006 -0.0089414064
0.0029444066 0.079999998 -0.0091715725
0.0048460909 0.079999998 -0.0089960499
0.0067321579 0.080000006 -0.0090539623
0.0089386841 0.079999991 -0.0091796517
0.010956064 0.080000006 -0.0090596918
0.013201048 0.079999991 -0.0089796437
0.014944279 0.080000006 -0.0092223557
0.01692524 0.080000006 -0.009034249
0.019046878 0.080000006 -0.0089267567
0.020941764 0.079999998 -0.0087985871
0.022890834 0.079999991 -0.0088811619
0.025103249 0.079999998 -0.008961767
0.027190764 0.079999991 -0.0090339305
0.028802251 0.079999991 -0.009065751
0.030937213 0.079999991 -0.0088607632
0.033497557 0.079216108 -0.0090423469
0.034004893 0.079855241 -0.0080379257
0.011330552 0.080000006 -0.0087613566
0.013615768 0.080000006 -0.0084448121
0.017159216 0.080000006 -0.0084106456
0.01977993 0.080000006 -0.009134464
0.021686178 0.080000006 -0.0092406683
0.024966566 0.080000006 -0.0088906139
0.027565114 0.080000006 -0.008590674
0.033813182 0.080000006 -0.0089272689
-0.034214545 0.00080048403 -0.0069782902
-0.033003431 0 -0.0070662759
-0.031285174 0 -0.0066974782
-0.028988082 0 -0.0072384486
-0.027023721 0 -0.0070005292
-0.024957219 0 -0.0072716493
-0.02308465 0 -0.0073028472
-0.021093151 0 -0.0070369104
-0.019028854 0 -0.0070053763
-0.017196283 0 -0.0069506555
-0.015152079 0 -0.0069041084
-0.012949873 0 -0.0070275553
-0.010813704 0 -0.0067387326
-0.0088024735 0 -0.0069214306
-0.007129827 0 -0.0071426714
-0.0050902255 0 -0.0070493934
-0.0029369986 0 -0.0068849884
-0.001035472 0 -0.006900284
0.00081211672 0 -0.0068721962
0.0029276323 0 -0.0069753602
0.0050553442 0 -0.0070927339
0.0067055202 0 -0.0071400702
0.0088586221 0 -0.0070916903
0.010934832 0 -0.0069562257
0.012913786 0 -0.0071476563
0.01507444 0 -0.0070260726
0.016980501 0 -0.0071674092
0.018990345 0 -0.0072114915
0.021316597 0 -0.0067852796
0.02298758 0 -0.0071578408
0.02494338 0 -0.0072988262
0.026717946 0 -0.0069480715
0.028983498 0 -0.0070591327
0.030937124 0 -0.006968847
0.032832634 0 -0.007000749
0.034204099 0.00084178511 -0.0067870794
-0.034223452 0.0029329564 -0.0069654887
-0.033978786 0.0025794744 -0.0079050604
0.03418684 0.0027536477 -0.0069765141
-0.034291618 0.0050981389 -0.0067037237
-0.03399035 0.0052952766 -0.0078606736
0.034176197 0.0049405387 -0.0070386371
-0.034210682 0.0069258707 -0.007014533
-0.033979993 0.0072331396 -0.0079004159
0.034174986 0.0071291183 -0.0070456783
-0.034225006 0.0090647452 -0.0069595096
-0.033967666 0.0094603039 -0.0079477699
0.034200508 0.0090799015 -0.0068968153
-0.034286018 0.010962438 -0.0067252326
-0.033962436 0.010753117 -0.007967853
0.034154221 0.010677437 -0.0071668304
-0.034219403 0.013051134 -0.0069810408
-0.033975516 0.01320842 -0.0079176165
0.034220181 0.013129914 -0.0067820596
-0.034220524 0.015189268 -0.0069767274
-0.033980086 0.015125865 -0.0079000695
0.034173153 0.014926704 -0.0070563965
-0.034251515 0.016993884 -0.0068577277
-0.033972681 0.017834868 -0.0079285037
0.034215998 0.017399037 -0.0068064532
-0.034196757 0.018692842 -0.0070680128
-0.033986155 0.019028172 -0.0078767659
0.034176957 0.019076932 -0.0070341942
-0.03424865 0.021035774 -0.0068687219
-0.033972643 0.021446627 -0.0079286564
0.0342176 0.021070089 -0.0067971037
-0.034292825 0.023133529 -0.0066991039
-0.033982828 0.023507431 -0.0078895297
0.034160566 0.022980524 -0.0071298094
-0.034250818 0.02509593 -0.0068604006
-0.033972204 0.025043186 -0.0079303421
0.034200646 0.025072914 -0.0068959855
-0.034289058 0.027165489 -0.0067135491
0.034188632 0.026747813 -0.0069661061
-0.034190878 0.028753785 -0.0070905741
-0.033964753 0.029455919 -0.0079589514
0.034186192 0.028783243 -0.0069803107
-0.034252293 0.03116883 -0.0068547288
-0.033982299 0.030488782 -0.0078915786
0.034144044 0.031019542 -0.0072261998
-0.034225706 0.033135749 -0.0069568236
-0.033985112 0.033136409 -0.0078807771
0.03417575 0.033034392 -0.0070412299
-0.034312312 0.03497985 -0.0066242442
-0.033975329 0.035654198 -0.0079183327
0.034201138 0.034939073 -0.006893123
-0.034195349 0.037253872 -0.0070734024
-0.033984303 0.037715722 -0.0078838747
0.03422359 0.036712024 -0.0067621358
-0.03426503 0.038901582 -0.0068058153
-0.033980306 0.038848266 -0.0078992303
0.03417708 0.038947433 -0.007033478
-0.034170326 0.041005518 -0.0071695
-0.033989098 0.041190803 -0.0078654597
0.034170981 0.040971942 -0.0070690433
-0.034262471 0.042980399 -0.0068156454
-0.033978868 0.043128293 -0.0079047577
0.03419679 0.043007553 -0.0069184885
-0.034237057 0.044916376 -0.0069132447
-0.033968233 0.045161877 -0.007945586
0.034200627 0.04493114 -0.0068961079
-0.034237187 0.047260415 -0.0069127418
0.034165226 0.046722852 -0.0071026296
-0.034189217 0.049134571 -0.0070969677
-0.033966869 0.049819183 -0.0079508256
0.034170914 0.04887294 -0.0070694527
-0.034296911 0.050951663 -0.0066833864
0.034171291 0.05097698 -0.0070672417
-0.034212273 0.05306327 -0.0070084292
-0.033978894 0.052911956 -0.0079046478
0.034212582 0.05290037 -0.0068263975
-0.034278058 0.054665081 -0.0067558102
-0.03396444 0.055098288 -0.0079601472
0.034206118 0.054947626 -0.0068640611
-0.034206521 0.057127099 -0.0070305159
-0.033969592 0.056555912 -0.0079403659
0.034149185 0.056878559 -0.0071961815
-0.034321956 0.059316464 -0.0065872176
-0.033971004 0.058678374 -0.0079349577
0.034157559 0.059164762 -0.0071473634
-0.034247819 0.061000552 -0.0068719028
-0.033999342 0.060540751 -0.0078261159
0.034178387 0.061019413 -0.0070258477
-0.034222957 0.062819816 -0.0069673983
-0.033981137 0.062745102 -0.0078960219
0.034221217 0.063172825 -0.0067759817
-0.034195967 0.065107837 -0.0070710392
-0.033981085 0.06407395 -0.0078962324
0.034161404 0.065261409 -0.0071249157
-0.034204997 0.066980317 -0.0070363521
0.034176201 0.066953257 -0.0070386059
-0.034240611 0.069188908 -0.0068995962
-0.03399121 0.069871157 -0.0078573609
0.034171324 0.069046736 -0.0070670657
-0.034261171 0.070782214 -0.0068206452
0.034190115 0.071318306 -0.0069574341
-0.03425175 0.073051579 -0.0068568322
-0.033985894 0.073837101 -0.0078777652
0.034176216 0.072879553 -0.007038536
-0.034225442 0.07530579 -0.0069578565
0.034212958 0.074996404 -0.0068241921
-0.034262169 0.077175818 -0.006816817
-0.03395889 0.077729538 -0.0079814829
0.034223504 0.076767892 -0.0067626713
-0.034209467 0.079218373 -0.0069578509
-0.032992706 0.079802148 -0.0072553195
-0.0309081 0.079999991 -0.0069559501
-0.029075075 0.080000006 -0.0071163923
-0.026929084 0.079999998 -0.0073797135
-0.024656743 0.079999991 -0.0070434818
-0.022857331 0.079999991 -0.0069491244
-0.020875314 0.080000006 -0.0069532581
-0.019149438 0.079999998 -0.007045045
-0.016883876 0.080000006 -0.0070636962
-0.015145835 0.079999991 -0.0067142588
-0.01310084 0.079999998 -0.006962372
-0.011330754 0.079999998 -0.0067095738
-0.0090103848 0.079999998 -0.0072200736
-0.0068336986 0.080000006 -0.0067150882
-0.0048939558 0.080000006 -0.0069634495
-0.0027494514 0.079999998 -0.0071544889
-0.00090368476 0.080000006 -0.00685537
0.00096393481 0.079999991 -0.0068759453
0.003082633 0.079999991 -0.0069740084
0.0050240732 0.079999991 -0.0069538583
0.0071112225 0.079999991 -0.007112918
0.0091877747 0.079999991 -0.0070664124
0.010679871 0.079999991 -0.0068547931
0.012949898 0.080000006 -0.0066986629
0.014908782 0.079999998 -0.0069888709
0.01680051 0.079999991 -0.0069577359
0.018936688 0.079999998 -0.0068423832
0.020999473 0.079999998 -0.006997983
0.022980191 0.080000006 -0.0069896439
0.024959432 0.079999991 -0.007103343
0.026621724 0.079999991 -0.0069001634
0.02875571 0.080000006 -0.0068069492
0.030992698 0.079999998 -0.0068298117
0.033313401 0.079999998 -0.006974746
0.034180012 0.078970097 -0.006965647
-0.034096435 0.080000006 -0.0065392125
-0.031377841 0.080000006 -0.0065128515
-0.029244766 0.080000006 -0.0063369805
-0.024274126 0.080000006 -0.006584757
0.0040674545 0.080000006 -0.007825274
-0.034555197 0.00088936061 -0.0048383325
-0.033050019 0 -0.0050464976
-0.030960599 0 -0.0050962642
-0.028957421 0 -0.0051482548
-0.026874559 0 -0.0047880942
-0.02482608 0 -0.0050136843
-0.022836555 0 -0.0050518033
-0.020983467 0 -0.0047457269
-0.019025739 0 -0.0051494427
-0.016919581 0 -0.0051039783
-0.015130426 0 -0.0053006373
-0.012885866 0 -0.004892569
-0.010928997 0 -0.0050344714
-0.008749608 0 -0.0048653795
-0.0068841665 0 -0.00475469
-0.0048861415 0 -0.0051512751
-0.00310452 0 -0.0050187833
-0.0010649292 0 -0.0048722816
0.00057799154 0 -0.0047800625
0.0029328126 0 -0.0049833488
0.0048557627 0 -0.0048541236
0.0071175504 0 -0.0049315668
0.0090458654 0 -0.0046132812
0.011255866 0 -0.0052871681
0.013012041 0 -0.004752994
0.014758091 0 -0.0047103534
0.016827611 0 -0.0051856837
0.019322693 0 -0.0049216994
0.021079443 0 -0.0050851963
0.022897488 0 -0.0049852342
0.025028314 0 -0.0047672619
0.026933275 0 -0.0053566433
0.029040664 0 -0.0049150982
0.031002581 0 -0.0050162277
0.032952026 0 -0.0051027173
0.034508694 0.00087930344 -0.0049433042
-0.034569986 0.0029880777 -0.0050567188
0.034594897 0.0030822589 -0.00459613
-0.034574583 0.005137377 -0.005000229
0.03448521 0.005026076 -0.0052360115
-0.034576353 0.0067806058 -0.0049818102
0.034518056 0.0070587085 -0.00504437
-0.034568377 0.0089562386 -0.0050738119
0.034538005 0.0089366566 -0.004928025
-0.034582876 0.011090963 -0.0049050278
0.034516659 0.010991513 -0.0050525586
-0.034577619 0.013003918 -0.0049669598
0.034494296 0.013136981 -0.0051830104
-0.034577142 0.015169645 -0.0049725673
0.034539655 0.015004426 -0.0049184035
-0.034590892 0.017088156 -0.0048108273
0.034528609 0.017122421 -0.0049828351
-0.034586642 0.018960975 -0.0048608403
0.034516145 0.019187242 -0.0050555426
-0.034582514 0.02073474 -0.0049094185
0.034547094 0.021113871 -0.0048750085
-0.034562826 0.022928756 -0.0051314421
0.034484286 0.023103528 -0.0052414145
-0.034571663 0.025245637 -0.0050223288
0.034496084 0.024753796 -0.0051725488
-0.034571283 0.026962439 -0.0050340719
0.034516074 0.026793305 -0.0050559263
-0.034564406 0.029171918 -0.0051098885
0.034566406 0.029303545 -0.0047623385
-0.034589432 0.031069934 -0.0048225834
0.03453555 0.030855993 -0.0049423482
-0.03455963 0.03292359 -0.0051782541
0.034534361 0.032931726 -0.0049493057
-0.034577522 0.03509929 -0.0049628313
0.034518059 0.03515726 -0.0050443718
-0.034553096 0.036727551 -0.0052553457
0.034581572 0.037072446 -0.0046738647
-0.034584749 0.038816385 -0.0048830872
0.034501392 0.038910087 -0.0051416266
-0.034590829 0.041178122 -0.0048116036
0.034496944 0.040852752 -0.0051675444
-0.034582205 0.043280542 -0.0049112365
0.034540508 0.042844914 -0.0049134349
-0.034563098 0.045255192 -0.0051351846
0.034573499 0.045187265 -0.0047209584
-0.034606509 0.047038831 -0.0046236129
0.03454997 0.047019817 -0.0048582335
-0.034584112 0.048804842 -0.0048756977
0.034556564 0.048977468 -0.0048197857
-0.03458406 0.050970107 -0.0048875911
0.0345079 0.050908845 -0.0051036314
-0.034574497 0.05322386 -0.0050036963
0.034526788 0.052789532 -0.0049934513
-0.034582514 0.055138469 -0.0049094311
0.034483019 0.055103585 -0.0052487939
-0.034585249 0.056987621 -0.004875008
0.034553919 0.057107266 -0.0048351996
-0.034569908 0.058948223 -0.0050546271
0.034564152 0.059049036 -0.0047754864
-0.034579374 0.060844522 -0.0049464083
0.034531604 0.06114829 -0.0049653552
-0.034552943 0.06297712 -0.0052526784
0.034519039 0.063087188 -0.0050386479
-0.034575269 0.065007783 -0.0049946313
0.034532666 0.064844251 -0.0049591712
-0.034565501 0.067212991 -0.00510359
0.034480296 0.067111582 -0.0052646673
-0.034563944 0.06894543 -0.0051152203
0.03448534 0.069072656 -0.0052352552
-0.0346037 0.070838951 -0.0046542729
0.034521628 0.070946537 -0.005023567
-0.034601409 0.073181391 -0.0046753744
0.034507141 0.072740294 -0.0051080999
-0.034572661 0.07521753 -0.005014156
0.034493193 0.0750314 -0.0051894295
-0.034575276 0.076823175 -0.004994473
0.034501471 0.077041879 -0.0051411269
-0.034451142 0.079440936 -0.0050184946
-0.032973513 0.079999991 -0.0048339521
-0.031157542 0.079999991 -0.005136678
-0.029099748 0.080000013 -0.0049062846
-0.027079087 0.079999991 -0.0050537302
-0.024912078 0.079999991 -0.0052450267
-0.022950806 0.079999991 -0.0052319844
-0.021045722 0.079999998 -0.0051711095
-0.018756794 0.079999998 -0.0048409761
-0.016966689 0.079999998 -0.0048484653
-0.015326968 0.079999991 -0.0048487373
-0.012760443 0.079999991 -0.0051841559
-0.010964895 0.079999998 -0.0048528081
-0.0088578034 0.079999991 -0.0048261085
-0.0070679821 0.079999991 -0.0047454149
-0.00496594 0.079999991 -0.0050629969
-0.0028890502 0.080000006 -0.0049947556
-0.0009285665 0.079999991 -0.004942948
0.00096057344 0.079999998 -0.0048946505
0.0030412646 0.079999991 -0.0051064882
0.004836224 0.079999991 -0.0050136438
0.0070194537 0.080000006 -0.0049617384
0.0087165944 0.079999998 -0.0051098382
0.010649551 0.079999991 -0.0048739268
0.013118089 0.080000006 -0.0051557999
0.015169341 0.079999998 -0.004975298
0.016996937 0.080000006 -0.0050760158
0.018791573 0.080000006 -0.0050497279
0.021078382 0.080000006 -0.0048498269
0.02323192 0.079999991 -0.0047202003
0.024808157 0.079999991 -0.0050935564
0.027086634 0.080000013 -0.0049804444
0.029144391 0.079999998 -0.0048928503
0.03105651 0.080000006 -0.0049482943
0.033096939 0.079999998 -0.0049891453
0.034540016 0.079201944 -0.0047666868
-0.03137682 0.080000006 -0.0059671327
-0.022986457 0.080000006 -0.0057575246
0.0089467214 0.080000006 -0.0041737542
0.010644163 0.080000006 -0.0044450588
-0.034602825 0.0005075041 -0.0029136552
-0.033052269 0 -0.0029420347
-0.030896002 0 -0.0030915032
-0.02901311 0 -0.0032439048
-0.026909016 0 -0.0033060506
-0.025098395 0 -0.0029753416
-0.02308418 0 -0.0028591752
-0.020936383 0 -0.0032177952
-0.018993983 0 -0.0032350637
-0.016828556 0 -0.0029135186
-0.015324624 0 -0.0028239642
-0.012916797 0 -0.0032435923
-0.01094638 0 -0.0029508839
-0.0090323091 0 -0.0030738614
-0.0069020144 0 -0.00308996
-0.0049675666 0 -0.0027732679
-0.0028513931 0 -0.0030128076
-0.0010012485 0 -0.0028835062
0.00094366854 0 -0.0032002821
0.0028295282 0 -0.0028771621
0.005149282 0 -0.0029895704
0.0070252889 0 -0.002989975
0.0091709541 0 -0.0029535859
0.010994305 0 -0.0029310465
0.013011481 0 -0.0030131042
0.014888133 0 -0.0029481065
0.017211644 0 -0.0030041977
0.018996935 0 -0.0029480506
0.020904031 0 -0.0029920621
0.02325874 0 -0.0027869744
0.02514486 0 -0.0028767209
0.026674569 0 -0.0028940716
0.029362407 0 -0.0028514089
0.030905316 0 -0.0029461179
0.032847926 0 -0.002945595
0.034679398 0.00056224782 -0.0029149486
-0.034742534 0.002915652 -0.0030276706
0.034843668 0.0032723672 -0.002936003
-0.034755539 0.004865821 -0.0028747323
0.034837682 0.00491228 -0.0029163035
-0.034766063 0.0069911587 -0.0027509786
0.034815196 0.0066489382 -0.0030194521
-0.034734108 0.0089536002 -0.0031267449
0.034809843 0.0091613689 -0.0031081326
-0.034766421 0.011013469 -0.0027467257
0.034822829 0.011134722 -0.0030165208
-0.034740854 0.013024782 -0.0030474013
0.034848504 0.013053629 -0.0028646702
-0.034760807 0.015056103 -0.0028127551
0.034821194 0.015242365 -0.0030951381
-0.034743164 0.017185304 -0.0030202114
0.034811672 0.017230486 -0.0031119655
-0.034760881 0.018772425 -0.0028119443
0.034829788 0.018916154 -0.003014249
-0.034748938 0.021193478 -0.002952341
0.034851156 0.020901175 -0.0028916702
-0.034721311 0.023074634 -0.0032772112
0.034819003 0.022783706 -0.0030065251
-0.034751136 0.024822893 -0.002926542
0.034823187 0.024824427 -0.0030676867
-0.034758504 0.026870826 -0.0028398086
0.034813061 0.026911199 -0.0032337673
-0.034736793 0.028940933 -0.0030951707
0.034844901 0.028991958 -0.0028094302
-0.034747399 0.030836558 -0.0029704592
0.034834046 0.030852554 -0.0029688682
-0.034768213 0.033140581 -0.0027256324
0.034833461 0.03298682 -0.0029868309
-0.034727965 0.035078462 -0.0031989811
0.034853853 0.035002861 -0.0027201858
-0.034753557 0.036960591 -0.0028980302
0.034833085 0.036849592 -0.0030091526
-0.034737736 0.039032612 -0.0030840815
0.034839477 0.038985115 -0.0029354449
-0.034743402 0.04102258 -0.0030174446
0.034831364 0.041052278 -0.0030632517
-0.034741301 0.043094769 -0.0030420918
0.034800101 0.043161198 -0.0033347732
-0.034718357 0.044945635 -0.0033119589
0.034843985 0.044946238 -0.0029690047
-0.034763996 0.047173306 -0.002775254
0.03487334 0.047001213 -0.0025632386
-0.034758549 0.049082868 -0.0028393301
0.034832619 0.049129672 -0.0029955753
-0.034733485 0.05095711 -0.003134137
0.034818791 0.051126044 -0.0030916336
-0.034730528 0.052897681 -0.0031688167
0.034821432 0.052981541 -0.0031244031
-0.034744516 0.055147525 -0.0030043332
0.034818728 0.055106971 -0.0031302758
-0.034739241 0.057099987 -0.0030663831
0.034827955 0.057028756 -0.0030512447
-0.034744974 0.058551013 -0.0029989704
0.03481409 0.058963887 -0.0030965784
-0.034720533 0.06084583 -0.0032863773
0.034820016 0.060958099 -0.0030816502
-0.034742523 0.062864311 -0.0030277784
0.034806583 0.063226625 -0.0032225279
-0.034757037 0.065187819 -0.0028571282
0.034827139 0.06495931 -0.0029482408
-0.034756821 0.06670358 -0.0028597091
0.034825996 0.067147814 -0.0029499119
-0.034751974 0.06922628 -0.0029166562
0.03482075 0.068820454 -0.0029565485
-0.034738958 0.07099703 -0.0030696914
0.034814574 0.071089819 -0.0031232217
-0.034733005 0.073057249 -0.0031397587
0.034828987 0.072813652 -0.0030061535
-0.034766782 0.074828945 -0.0027425087
0.034830201 0.07512217 -0.0029272176
-0.034749165 0.07704147 -0.0029497019
0.034821063 0.076794915 -0.0030665344
-0.034660961 0.07922139 -0.0029725758
-0.032784626 0.079999998 -0.0028438962
-0.030836042 0.079999998 -0.0028155267
-0.02907671 0.079999991 -0.0029320356
-0.026810262 0.079999991 -0.0028571307
-0.025096646 0.080000006 -0.0031795297
-0.023231648 0.079999991 -0.0029845061
-0.021278249 0.079999998 -0.0027249183
-0.018768584 0.079999991 -0.0029815671
-0.017086772 0.079999991 -0.003029268
-0.015133781 0.080000006 -0.0031057198
-0.013171296 0.079999991 -0.0031216585
-0.01101563 0.079999991 -0.0029328603
-0.0090527805 0.079999991 -0.0029979758
-0.0070819724 0.079999998 -0.002935756
-0.0051002079 0.079999998 -0.0029752238
-0.0031604576 0.079999991 -0.0029547405
-0.0010399009 0.080000006 -0.0028930113
0.0010256922 0.079999991 -0.002646124
0.0029277313 0.079999991 -0.0029400669
0.0053732563 0.079999991 -0.002902179
0.0070827911 0.080000006 -0.0032389308
0.0092634968 0.080000006 -0.0032629657
0.011164352 0.079999991 -0.0028345503
0.013182189 0.079999998 -0.0028648518
0.01501958 0.079999998 -0.0028896802
0.0170044 0.079999998 -0.0032651303
0.018930351 0.079999998 -0.0028124109
0.021659905 0.079999991 -0.0029596749
0.023094859 0.080000006 -0.0028888073
0.024806662 0.079999991 -0.003040541
0.027237233 0.080000006 -0.0031671373
0.028865142 0.079999991 -0.0029726108
0.03109666 0.080000006 -0.0028180119
0.032813903 0.079999991 -0.0031440938
0.03469491 0.079338342 -0.0028447378
0.017882593 0.080000006 -0.0023619558
0.030209981 0.080000006 -0.0032102766
-0.034764722 0.00048610414 -0.0011411771
-0.033220105 0 -0.0010722959
-0.031044312 0 -0.00085519446
-0.02883951 0 -0.00077484461
-0.026739981 0 -0.00083557673
-0.025187971 0 -0.00083349406
-0.022781271 0 -0.0011476384
-0.02091784 0 -0.0011238247
-0.019280316 0 -0.0014436186
-0.016959991 0 -0.00097733282
-0.014893849 0 -0.0011303306
-0.012943394 0 -0.00096056965
-0.010976314 0 -0.0010200732
-0.0089051304 0 -0.00097675575
-0.0070574791 0 -0.00092105428
-0.0049631991 0 -0.00088010886
-0.0028786862 0 -0.0010334523
-0.00096663239 0 -0.00083617982
0.00098313624 0 -0.00084795471
0.0031222177 0 -0.001052757
0.0047681183 0 -0.00083458622
0.0069253314 0 -0.00093641819
0.0088710403 0 -0.0012314658
0.010975044 0 -0.00084496936
0.012945318 0 -0.00094669563
0.015113137 0 -0.00085939362
0.016854217 0 -0.00087055768
0.019138893 0 -0.00086311676
0.02109341 0 -0.00095553335
0.022939315 0 -0.0011431933
0.025393672 0 -0.00078531541
0.026926551 0 -0.0010436192
0.029282128 0 -0.00097897719
0.030939216 0 -0.00078587938
0.032926597 0 -0.00097697519
0.034767754 0.00070289633 -0.0010629268
-0.034918953 0.0031958609 -0.00095308915
0.034873996 0.0030674995 -0.0011448076
