# .PCD v0.7 - Point Cloud Data file format
VERSION 0.7
FIELDS x y z
SIZE 4 4 4
TYPE F F F
COUNT 1 1 1
WIDTH 1634
HEIGHT 1
VIEWPOINT 0 0 0 1 0 0 0
POINTS 1634
DATA ascii
66.056114 -29.608879 -18.381702
9.4250774 12.924352 -32.496658
101.86683 8.1302567 33.920643
104.88396 -27.759842 21.27953
120 -21.435955 -15.028025
0.032529831 18.999294 29.324009
76.897278 -34.620132 -4.4628029
27.739305 27.415348 -21.657421
39.565956 1.5888696 -34.852772
73.197357 2.2058372 -34.795597
69.325363 -29.145718 -19.129738
16.060509 33.699039 -9.3902254
116.218 30.22403 -17.388203
30.635532 13.113903 32.402275
27.477583 34.676704 4.1601729
31.783039 -34.850697 2.5172224
57.118614 -15.404552 31.261667
114.29134 0.74838817 -34.930653
0 -18.881809 5.5350599
6.9837785 -25.005219 -24.301208
20.947559 -29.606956 18.384811
47.684513 -5.7604904 -34.466209
9.6537781 34.403374 -5.622364
0 -31.588495 -4.8859882
0 18.892469 3.2499046
59.745377 33.064674 -11.124988
17.184032 13.357811 -32.280823
52.197384 -34.602097 4.5592852
23.159645 -26.60198 22.549643
120 7.9046822 16.049875
67.435143 -6.3489618 -34.411678
0 -0.59649265 -4.2775583
0 -23.945 -3.3250771
120 -31.44561 -7.3678846
65.8228 -13.527801 32.196178
13.804873 -25.833164 23.392994
104.58109 -15.279658 -31.323856
0 -14.76251 -20.10957
5.5951238 30.361382 17.166372
120 -14.651612 -9.4989614
93.508308 34.850697 1.1847155
77.013649 16.211678 -30.859768
86.106567 10.318118 -33.298145
0.77376366 23.776423 25.649134
120 -11.097794 2.9123993
81.406624 27.110588 -21.991726
57.088284 34.152843 -6.9625797
88.185738 14.567457 31.67849
120 5.0349965 -23.562441
7.0449328 2.8755693 34.733536
111.21935 13.69664 -32.112106
88.823654 21.297646 -27.588375
5.1108027 -34.698303 4.0446138
0 5.7710013 -9.2188492
0.63996077 7.7961555 -34.015701
52.571911 10.949303 -33.118553
120 -26.394222 8.5663719
120 7.2252631 1.393424
0 33.326004 -1.1981449
117.07535 34.85067 3.2295291
17.659279 10.038251 33.377773
88.332237 3.6158581 -34.66494
88.054855 -34.850697 -0.95816338
120 22.124029 8.859767
24.78532 10.306254 33.301521
99.118896 -34.850697 2.5143888
0 -29.220915 -6.0462351
20.163967 -32.720497 -12.013403
120 -4.0257607 -0.55682564
67.747971 -31.31377 -15.62821
30.050093 -33.951103 8.0417929
120 17.139717 7.1327419
111.33731 34.850697 -0.97926593
0.72597742 -28.820286 19.655325
90.137192 -34.767681 -3.6734891
19.887535 33.8671 8.4911776
15.873434 24.827131 24.496559
91.49131 33.777184 8.9721947
52.247501 -34.850697 -2.1347921
70.342293 -25.578482 23.672365
58.318233 31.920521 -14.078382
74.614403 24.95896 24.35195
99.21685 22.312906 -26.821684
49.440762 31.964535 -13.96476
32.758411 -25.750181 23.484022
33.626373 34.364506 -5.830276
75.680893 -33.105949 -11.018436
37.217724 10.019998 -33.382965
98.84182 -30.979019 -16.168856
88.156311 -32.370705 -12.916314
17.569729 26.893486 -22.229874
0 -23.370014 -9.4047699
80.682907 -21.770676 -27.231157
90.001663 30.025356 17.709072
0 22.919926 -5.3058672
77.853821 -16.20039 -30.865387
120 23.121941 19.19466
112.71463 32.081303 13.663355
1.808424 -33.061741 -11.132557
120 34.114502 -1.5178709
120 12.781572 24.427057
63.123642 21.685921 27.295162
15.958536 34.841984 -3.2759995
56.557354 24.145576 25.24419
112.17335 -33.587158 9.7763033
71.540054 -18.19935 29.870024
120 -3.131933 -25.197201
75.812851 3.8813291 34.640343
31.49052 -9.8472033 33.432129
92.189079 -34.850697 0.71469212
18.93465 32.237263 13.260779
51.918304 -30.188477 -17.445625
53.793327 27.907951 21.117062
33.386921 -22.745579 26.494946
91.78627 -34.850697 -1.8181021
48.233574 -31.920284 14.078986
74.972626 -8.3943329 33.845505
39.816147 25.460131 -23.802191
10.432563 -28.875504 -19.566151
53.76009 33.988285 -7.8428993
0.78962088 -9.8194065 33.440037
12.222723 6.2565427 34.420242
36.029858 -8.2736139 -33.879852
74.134033 15.869631 31.030087
77.998817 -6.3712564 34.409615
92.55407 -34.095901 7.2672033
77.415581 34.850697 2.2045395
0 -31.001846 -3.5711865
0 13.383575 -7.4039631
11.796991 5.8392382 -34.458912
15.343945 -33.979736 -7.8886204
58.387241 11.576547 -32.94009
71.311043 -23.80578 25.616928
110.64356 31.112259 -15.95366
47.643093 34.850697 -2.8791776
107.95871 25.701534 23.537384
5.1185551 -23.706568 25.725758
35.636959 -17.487967 30.224251
0 -16.573427 -0.93127728
35.150978 7.5326476 34.090679
95.90184 29.206282 19.031919
62.378517 -4.0276303 34.626785
23.057978 32.941261 -11.443545
76.40023 -11.955139 -32.832371
71.118958 31.573917 14.973061
111.14709 -31.667833 14.73064
59.695724 -25.631884 23.613787
7.333106 34.830338 3.3383121
68.673698 34.850693 -0.5043593
81.655869 -8.5745754 33.794224
89.322151 7.316164 34.152275
0 15.772095 12.266861
16.543995 8.3874512 -33.847462
46.75872 -33.578064 9.7997665
0 9.7273245 1.1517086
46.877701 -24.084698 25.31097
81.081345 27.707035 -21.337456
67.437469 -11.319959 -33.013096
108.32418 20.166431 28.442627
87.049408 8.6672049 33.767868
74.230392 -2.6646821 -34.753082
31.858822 -14.957598 -31.484226
61.158329 -2.8915236 -34.732059
61.422859 1.2808199 -34.881317
64.179214 -23.104666 26.223774
106.61821 30.3321 -17.213661
18.77487 -34.401054 -5.6347561
85.846237 -7.3864212 -34.132282
65.564018 -34.33065 -6.0113931
99.242867 4.2260194 34.608398
68.132126 6.3297029 -34.413467
12.947109 -27.721159 21.321962
26.584698 -31.963493 13.967457
88.178589 -16.831554 -30.551104
120 21.845203 12.303656
80.425232 -20.663078 -28.067577
95.577583 -5.3230195 34.506748
90.185036 7.1731777 34.192955
0 -13.198851 7.9785347
19.622963 -17.005507 30.464487
58.60284 22.818726 -26.439709
66.247963 -8.5666285 -33.796486
108.58629 10.096975 -33.361061
0 14.702356 11.776255
98.655243 27.739567 -21.301771
11.143991 34.128933 -7.0904956
69.95266 -34.476357 -5.2319336
0.76294184 -0.21145874 -34.980408
120 -8.2342091 10.226907
0.1441741 -30.106527 17.577974
4.1571236 16.699211 -30.617002
120 15.080563 10.903263
3.3312178 -30.740095 16.554729
95.679703 -30.878399 16.331356
82.715271 -22.808689 26.447289
30.081339 0.68972325 34.936089
21.444654 26.991356 -22.122519
101.88058 24.110229 25.282963
54.105274 31.198158 15.814929
30.358297 -28.653925 19.924009
28.138004 -10.391129 -33.27737
96.291229 -4.0759034 34.622307
106.31247 22.734005 26.503685
0 -9.2318983 -31.270969
111.1638 27.226124 -21.86499
70.927017 34.850697 -0.3756156
71.78756 23.529888 -25.902664
90.607315 33.993584 -7.8145351
21.992298 26.786896 22.346798
88.861916 32.548668 -12.456946
29.276297 21.977345 -27.075089
96.774178 7.6445904 -34.058826
99.75132 18.372028 29.78404
52.04966 25.553076 -23.700235
80.713875 -33.903641 -8.2957039
83.9375 32.432552 -12.756677
0 -15.951883 -23.767113
90.682335 21.321753 -27.570169
36.270477 -2.3344054 -34.783684
56.55711 22.537174 26.652328
56.490204 34.850697 2.2154202
31.126102 28.705894 -19.840075
99.872192 3.8924012 -34.639313
0 -11.726394 -21.508923
70.690147 28.165037 -20.713589
0 1.1237782 0.0047264099
35.873898 4.7180362 34.562805
120 -15.551718 -29.548534
95.447021 24.214777 -25.16828
40.719025 26.14439 23.051598
82.078171 7.5281172 34.091965
104.14738 -16.037697 -30.946396
50.986084 -21.224569 -27.643559
53.331505 33.831299 -8.6826801
103.96288 -27.292919 21.791719
47.264278 22.969868 -26.325573
74.830132 -31.384518 15.461968
37.898476 -29.889832 17.927948
120 -28.843462 -3.4706829
53.367306 32.548347 12.457767
120 17.680275 25.149649
0 -0.96389788 -16.02449
115.81642 33.832836 -8.6744642
8.6117001 25.011211 -24.294632
120 -19.961765 -0.74784279
120 12.372637 -14.765529
97.077255 3.6687887 -34.660034
120 -25.880127 5.6852064
18.253061 13.235834 32.34156
107.77031 -16.926332 30.503912
84.029388 -14.097466 -31.912518
107.87791 1.3474206 -34.875145
11.797071 33.407635 -10.239691
24.360273 6.9435563 34.258289
120 -23.922504 6.5122304
45.772499 -7.6317616 -34.062477
91.506149 -23.752174 25.675732
18.986799 14.716661 -31.604195
75.9925 -2.4365516 -34.774216
5.6096864 29.997168 17.754593
120 -14.853337 1.6879175
76.265167 -14.618943 31.652853
35.17627 11.505078 -32.960426
0 -15.720793 -4.193428
85.990631 -23.539143 25.895676
61.407257 -0.11568416 -34.989281
120 23.830097 5.548027
50.11927 -34.557442 4.7981768
67.918144 8.4892082 -33.818512
90.330582 -10.338272 -33.292412
73.712433 5.6130838 -34.47987
0 29.074709 1.8061602
120 -10.893045 -20.26425
113.88096 -12.351312 -32.71965
85.737648 32.454071 12.701122
120 3.8935843 -8.0998945
98.740234 -3.8521295 -34.643047
98.415054 -29.154835 19.115009
120 -9.6608496 4.8289919
119.2898 34.850697 -2.7847967
33.755852 -9.3580647 -33.571301
55.266724 -31.540091 -15.060386
29.059658 -23.74815 25.680145
57.819519 13.196667 -32.361061
23.200558 12.585002 32.65316
120 3.0049505 -17.446737
87.017838 1.8738952 -34.826355
9.8844624 22.058004 27.014179
50.345585 12.82025 -32.548496
96.57679 -14.116341 31.903122
120 23.041761 -8.1676455
68.919479 -28.860474 -19.590418
0 -15.624424 -17.32897
114.71834 16.970133 -30.482101
93.038254 -0.80217886 -34.925667
105.90019 34.850697 1.5988812
81.19352 -27.459644 21.608829
120 25.764223 10.00338
0 19.078346 -28.621529
1.952498 -34.293892 6.2080498
78.305054 -29.62743 -18.351742
120 26.578529 -18.931242
57.407303 16.804619 30.564518
53.835213 28.826801 -19.644802
120 -21.572029 -24.13398
16.655552 -30.94183 -16.228918
115.88847 5.6612406 -34.475407
32.953941 -20.160088 -28.447418
120 16.339293 9.5775871
3.5672879 -34.128281 -7.0939879
60.364265 -27.685658 21.360907
71.558327 -34.772125 3.6497149
104.71724 34.850697 1.0469747
110.3348 29.476974 18.594742
79.200478 31.330669 15.600918
24.847248 29.40119 18.717133
106.01835 33.738811 -9.1774492
120 -11.362623 7.4768486
112.49146 33.880245 -8.4208441
54.248703 -30.931637 -16.245377
119.13834 -23.27035 26.098658
113.26223 34.850697 -2.4186816
110.55827 21.908684 -27.12694
40.65218 7.4785147 -34.106079
116.68784 20.973164 -27.833412
2.8378272 -34.269974 -6.3360004
2.336576 -27.321154 21.760746
109.95438 -34.850697 -3.1117797
77.833176 -10.335204 33.293282
81.302193 33.720604 -9.2748604
120 20.819992 13.440777
43.240074 23.953144 -25.455276
0 -1.4600701 -6.4939389
44.916672 -7.0877523 -34.217262
77.838432 -33.777191 -8.9721565
111.85548 32.775658 11.871029
81.011551 1.6967438 34.842773
14.04208 -14.076951 -31.922733
60.654602 30.420612 17.070709
55.145496 -29.803867 18.066788
21.676748 -34.850697 -0.079365849
120 -32.495071 8.019949
103.36642 10.766317 -33.17062
120 1.6724479 -11.452827
70.528412 -31.779404 -14.442644
90.039467 -16.977955 30.478207
92.011307 -24.329807 25.042099
64.54393 8.0563574 33.941669
16.585648 -0.65744525 34.939079
36.684322 -31.666397 -14.734353
80.175888 -33.359085 -10.365019
65.255356 -6.6337891 -34.346424
25.774162 8.5001955 33.815388
5.662744 -17.06209 -30.43631
87.783295 -26.281425 22.901274
16.217758 4.925045 34.543625
0 3.4036291 -21.320999
64.351929 -8.3576622 -33.855942
5.2528811 1.319298 34.877747
102.72945 -1.8620385 -34.827457
120 -24.117327 -13.047327
0 -21.569485 -6.7851706
29.251806 -17.447451 30.244427
120 34.345169 3.4758055
68.716537 33.12151 10.978273
114.85004 -15.605456 -31.161629
32.765919 34.689365 4.0924497
120 -4.4554081 21.188265
120 -11.27911 4.3632441
46.646545 -25.625309 23.620998
86.039207 -33.495903 -10.011847
88.03624 13.476748 32.2216
0 10.22846 -0.32894325
115.01178 26.870596 22.254986
78.4002 -31.10573 15.964208
0 -22.545937 14.047934
120 23.194283 6.1373434
44.179886 -34.850697 -1.5937514
92.18515 31.338091 15.581806
120 8.7755642 -10.44118
1.5418839 -22.90325 26.375877
36.499043 30.590862 16.795746
48.356323 22.698523 26.530479
115.23974 -34.850697 -3.0879159
4.0893531 -6.0725365 -34.437294
46.36834 27.555508 -21.503674
119.99999 1.6659076 -1.6699018
85.493401 34.232292 6.5375628
119.74927 -33.292557 -10.536748
77.714561 -34.850697 0.32892475
78.31131 -7.6201506 -34.065781
77.990082 -29.342648 18.811684
16.228188 18.821119 -29.458561
81.89946 -13.929901 -31.995956
120 30.771675 -15.115606
0 16.803585 -18.66687
120 29.393051 8.6166363
62.362778 26.090528 23.11068
114.72664 -34.3638 5.8340645
84.388222 14.484419 -31.719837
6.20435 -34.850697 -3.1427104
94.741074 -29.517166 18.529823
100.03459 -29.721203 -18.200294
66.588669 -0.68303722 34.936707
120 11.724222 -1.8463202
13.674782 -1.5824728 -34.853363
100.77216 34.417923 -5.5445356
57.858566 4.665926 34.567638
35.811008 16.517136 -30.707664
8.8509388 -27.053471 -22.054379
45.357204 -0.61431235 -34.943077
100.98196 -9.6457157 33.489456
2.3069358 -27.930603 -21.092211
0 32.357437 10.29112
120 5.2857642 3.6029797
59.797203 29.968832 -17.80036
98.299149 34.299938 -6.1756897
0.62350988 34.850697 1.9343909
78.960663 31.426334 -15.354019
60.445602 27.005547 -22.106955
21.139412 -22.376822 -26.773417
120 -8.362299 9.1669044
85.001762 -29.871881 17.95694
28.215502 -2.1867557 -34.797367
25.931833 23.275631 -26.094669
59.238796 34.850697 0.088742852
51.370094 34.833885 3.3193154
26.221468 -32.613365 12.289946
17.445782 32.415611 -12.800401
52.765324 -12.313433 -32.730431
42.401127 34.168282 -6.879982
76.690651 -21.173172 -27.682371
120 -23.483639 11.93346
37.265747 -8.8321266 33.720943
0 26.958759 11.244861
37.297081 -25.10973 24.186562
5.02666 9.3074245 -33.585712
120 -15.814856 -1.6805053
30.608414 -24.340946 25.029881
117.39403 28.650101 19.930183
78.765335 12.964689 -32.476574
72.411423 -29.325268 -18.839748
119.99999 -12.527591 -16.234978
0 -25.797052 -10.065659
109.45648 15.930391 -30.99983
45.56461 -34.673424 4.1777105
120 16.065332 16.02704
52.758621 29.514839 18.533585
23.930716 27.23842 21.851501
78.589867 5.9501514 34.448635
21.902397 -34.534855 4.9189954
51.757557 26.611614 -22.539078
115.24228 -22.206444 -26.902084
73.870201 11.812519 -32.872948
0 -21.937714 -23.966778
70.472321 -34.368744 5.807622
94.681953 -31.609051 14.88238
2.1896267 31.935619 -14.039403
117.63253 -0.9877879 34.908466
120 -32.551231 1.0448871
36.253418 -33.361717 10.358227
0 -20.585453 7.6262655
15.846025 15.074537 -31.425995
34.054218 -32.628551 12.250736
120 18.449343 -28.507168
111.13701 -25.318296 -23.957775
120 33.353264 -0.80866718
120 29.497248 10.564163
32.944149 -2.2135637 -34.794884
103.38881 -20.986452 27.823376
53.417961 -32.38583 -12.87728
86.47123 9.4850292 33.535179
81.561157 -23.206177 -26.147118
32.376961 8.8441334 -33.717525
0 -8.7941809 -10.205772
118.68582 -33.059029 11.139549
72.11734 -28.537636 20.111822
71.571716 -14.225086 -31.848972
23.896873 -8.4097834 -33.84111
50.53429 -2.9994996 34.722054
35.903877 29.633854 -18.341368
92.847008 -32.645378 -12.207313
119.86633 -23.374817 -26.019768
116.98796 -21.204014 27.659081
119.29181 -16.10783 -30.911476
119.04112 -24.435099 24.9266
120 -2.7128608 2.3893547
59.915112 -33.288864 -10.546275
109.5329 -29.107471 -19.191504
120 -10.393154 21.450695
103.29 7.6085434 34.06908
119.90075 9.6438437 33.48999
68.521431 -33.235954 -10.682859
0.49091578 13.989029 31.966513
23.875208 3.66891 -34.660027
113.00723 -20.322918 28.324455
108.19415 27.349661 -21.729479
24.817902 -27.996948 -20.985062
10.630746 28.401667 -20.331417
92.175323 -34.56076 4.7804251
120 -18.905655 -24.240738
24.657452 -11.461922 -32.972706
110.40442 -34.028648 -7.6269646
112.20806 31.858541 -14.238372
19.000311 11.388288 32.993652
120 -28.835785 -19.570015
35.166435 -31.846464 -14.269541
3.3684325 14.387107 31.768293
0 -5.9397907 5.8859921
112.57397 -29.180857 -19.072981
44.171021 25.86581 23.357182
0 -1.6163672 20.360453
108.10093 -10.072683 -33.367977
55.282608 -34.527386 -4.958952
39.244087 26.779423 -22.355
116.79922 30.919781 16.264526
31.671825 -6.5697837 -34.364635
13.120071 13.886047 32.017792
43.46767 9.6491051 -33.488495
64.511276 24.261074 25.117493
56.912247 -2.2208798 -34.794205
115.4491 -24.485388 -24.871433
120 -6.2989354 -29.528831
0 13.192986 -23.433662
14.17451 -31.35482 15.538626
17.470959 34.850697 -2.5478461
87.56926 30.923199 -16.259007
36.737831 -9.0565319 -33.657097
30.271704 -0.28334752 -34.973743
27.854698 26.883347 22.240997
101.01385 -29.752441 -18.149845
30.6577 32.393356 -12.857845
88.850105 -24.199131 25.185442
120 10.054894 -1.7478437
74.561066 2.7424223 -34.745876
68.910919 -14.145441 31.88863
46.914906 -18.905905 29.394535
68.609612 -34.850697 1.7194445
0 25.258907 21.683226
118.08414 11.89409 -32.849743
79.169281 -26.106945 -23.09267
77.282745 -29.140167 19.138699
92.99826 18.064445 29.937199
45.52079 -32.758278 11.915876
71.302353 -31.466583 -15.250126
6.578393 -33.898167 -8.3249817
0 10.416419 0.68229103
70.683029 32.35009 -12.96953
109.92603 21.049839 -27.775509
118.55482 0.84118223 -34.922054
0 11.105806 -32.964127
28.009201 -0.9546929 -34.911533
94.998718 -0.60907543 -34.943562
29.029305 -27.829071 21.203588
65.375725 28.605631 20.002007
120 21.643713 -3.5918274
0 16.036461 30.496622
33.33596 -21.840803 -27.1782
120 10.565019 -21.845888
66.280403 -34.406509 5.6055946
108.96477 -30.132483 -17.536057
120.00001 -19.416004 23.234608
105.77179 -32.213707 13.321586
44.887939 27.571064 -21.486607
27.304173 -19.300209 -29.096767
0 22.687101 25.34466
120 -1.9450383 25.809517
14.8103 34.291573 6.2204428
42.226368 34.69809 -4.045763
20.264725 17.529524 -30.203556
93.090561 32.074306 -13.681409
6.2441039 15.296898 -31.315269
38.259254 -33.663837 -9.5783663
83.633774 31.640198 14.801975
21.950132 28.638302 19.949238
1.085608 32.99612 11.301936
120 -0.42275158 30.000349
4.4773579 -7.9467769 33.972847
120 -5.5029421 9.7668428
85.614441 16.937033 30.498585
0 -5.7625933 -31.766035
15.910406 -33.989296 -7.837481
37.389599 15.275791 -31.325783
101.24689 27.0222 -22.088686
0 12.059505 -27.266386
58.472614 -30.278591 17.300079
14.658179 7.6543427 34.056053
42.354069 11.181608 -33.05246
102.37503 31.99679 13.881504
14.003835 -33.019814 -11.240774
119.13234 -27.409748 21.663561
107.57141 -15.813528 31.05802
3.3583617 34.321037 6.0628395
0 -25.045961 -4.5349941
10.760128 -34.699329 -4.0391245
114.90181 -34.537254 -4.9061747
2.75249 -5.326757 34.506401
120 -21.191484 -17.026836
0 31.649704 1.1164274
80.399139 -1.3539397 -34.874538
86.786522 -19.326099 29.077217
120 18.237822 -26.771852
120 15.69482 23.423658
38.742706 20.466513 28.216015
89.008926 34.850697 0.11950976
0 19.166843 21.940065
115.50134 34.466988 5.2820435
51.239925 29.417454 18.690863
20.991367 8.8445644 -33.717403
79.607193 -29.638651 18.33362
116.07886 26.89142 22.232143
64.133713 -34.702957 4.0197525
120 -1.7913013 -33.355923
78.401688 17.874741 30.03166
10.073196 1.4090579 34.869434
42.212769 -34.8507 -0.17599511
10.290513 30.882185 16.325245
68.199509 34.418259 5.5427532
17.807158 -19.266865 29.121948
40.969505 0.48244816 -34.955296
42.986549 33.621082 9.6887321
51.075676 -33.914856 -8.2356949
99.52951 -9.1185789 -33.639442
20.257507 -12.887164 32.515175
106.70746 -34.346348 5.9274163
47.169815 -18.882471 -29.412228
120 -0.62694466 -1.8872814
6.2914038 24.113804 25.279043
97.191475 1.5211235 -34.859047
100.47066 29.391567 -18.732674
0 13.038498 -5.2353897
100.90868 -33.976971 -7.9034185
8.2073593 -2.3823464 -34.779243
15.722065 -3.5682454 34.669353
0 17.494293 6.1787834
42.413097 -32.009499 13.848692
73.466736 28.86956 19.575741
0 -0.56660175 30.692163
0 -21.552128 -22.775421
111.25975 -34.850693 2.5740798
75.972702 33.601181 9.740097
62.581543 -26.715111 -22.425543
114.54581 -34.850697 2.3151278
57.031689 -11.895646 32.8493
77.366501 -11.431713 -32.9813
0 11.162648 19.275364
97.176346 -17.252722 -30.341389
19.858038 33.058331 -11.141352
120 11.533093 -11.893919
52.147408 -31.347363 15.557871
112.79462 11.63365 -32.923843
29.635948 32.918335 -11.502728
0 19.669315 21.23922
77.980042 24.956657 -24.354477
28.2034 29.115955 -19.177803
33.013958 20.871639 27.91008
98.215111 34.831081 -3.334332
69.466232 10.831951 33.151947
105.16158 14.259436 -31.831867
20.121546 -1.9976256 34.814892
90.038063 -31.975906 -13.935415
120 16.35191 -3.2532387
10.343735 32.558117 12.432553
45.833916 6.672164 -34.335506
23.67907 -8.8346214 -33.720234
87.927864 -34.850697 -0.59228247
47.301407 26.618618 -22.531391
105.55191 -25.860542 23.362961
42.002739 -0.54824728 34.949196
77.039474 15.898539 31.015692
70.776337 25.452686 -23.810356
1.4701653 19.925474 28.62459
0 -25.274521 12.178083
61.62281 -33.916241 8.2282896
104.88108 24.83769 24.484978
12.634499 19.794365 -28.723597
61.950375 9.7088566 -33.471493
45.931313 29.006613 -19.354397
39.932056 13.534495 -32.192844
107.1581 34.850697 -0.060619116
92.668983 6.2042131 -34.425095
103.39657 -30.728531 16.573402
120 18.403484 20.869053
27.264553 -31.041435 -16.068045
120 19.077278 -23.285393
120 1.5136888 -19.586994
27.753677 31.384384 -15.462305
28.844175 -25.82494 -23.402018
11.714523 31.887323 14.164071
33.470272 17.803524 30.06712
52.741566 12.632214 32.639729
29.449783 -23.127455 26.206568
48.504494 -34.850697 2.0077686
120 -24.067793 -15.731852
54.346672 34.850693 -0.97246474
19.574612 33.532463 9.9174786
0 22.238173 -25.119106
8.4734344 -22.01449 -27.047039
72.172104 18.127289 -29.905907
97.797371 23.505379 25.921171
120 0.11453167 6.0565434
39.964424 -34.661686 -4.2405009
49.577621 32.325577 13.032804
101.90925 -23.592375 -25.851023
43.95211 -34.637062 -4.3722467
0 -13.773035 28.606897
23.160696 -29.619148 -18.36512
16.726141 -32.172348 13.428337
106.57432 28.080137 -20.850704
116.24862 23.247484 -26.115927
7.0797515 34.119968 -7.1384516
120 -18.50519 -25.802628
62.981728 -24.592274 -24.754185
120 14.11932 17.918844
101.75632 -33.991241 7.8270664
0 5.1667614 -0.35747051
61.907455 -28.301205 20.493671
87.050331 27.876713 21.151327
60.721565 -14.651802 -31.636494
71.737442 33.922157 -8.1966553
120 -18.172447 2.3782902
84.988419 -20.628084 -28.094002
120 3.2075224 1.9667411
120.00001 2.4253755 -27.859497
58.638664 33.731434 -9.2169275
20.297455 -8.4885073 33.81871
61.633801 7.8715982 -33.99424
0.96917868 30.023355 -17.712301
63.776024 3.0736966 34.715179
43.135315 33.31036 10.490799
70.278702 -28.714523 -19.826138
0 -13.515715 17.269079
120 -23.022923 -2.5479174
120 11.203994 21.774887
84.016579 -21.230381 -27.639172
12.284224 -13.801766 32.059761
49.982296 1.7952114 -34.833649
34.82465 32.147484 13.492523
0 1.4748305 5.7877874
43.265247 -32.144394 -13.500504
0 -29.60685 -17.737295
20.679224 -32.728836 11.991876
0 -1.9890769 2.3967104
1.1790705 16.388144 30.771898
2.2456956 -7.4732461 -34.107578
80.843285 -18.621195 29.609535
120 -1.2602799 -27.26729
48.900375 -9.5972557 -33.503246
82.652061 -34.024277 -7.6503458
91.1343 -26.183201 23.009024
28.644146 -18.12175 29.908665
27.854769 34.846447 -3.252141
97.806702 33.746124 -9.1383324
73.694687 -11.892836 -32.850098
120 8.1761913 -33.346447
94.639816 -27.601095 21.453667
74.844078 34.178284 -6.826479
106.11505 -13.549706 -32.185272
112.64008 -14.683792 31.620564
13.90259 18.909105 -29.392117
96.157455 34.850697 -2.2468491
54.559647 -23.946804 25.462234
94.568497 29.843605 18.002609
84.49086 -32.74897 -11.939905
120 -5.7832475 11.635631
24.478132 -30.249754 17.346653
83.754982 18.47496 -29.719967
111.1781 -13.727711 -32.096634
34.989872 1.6503717 -34.847069
43.436581 -33.815315 -8.7681913
82.568146 -29.474482 18.598763
120 10.165474 -21.912323
120 16.319563 -19.599649
15.747921 -10.778767 -33.167076
30.230505 -26.538416 22.61937
26.464626 26.075647 23.127001
78.870651 7.7443237 34.030453
79.866295 -6.534276 34.374741
50.032356 -32.049313 13.745934
34.470078 -30.634432 -16.72538
34.459503 -25.643158 23.601421
63.0494 -27.674637 -21.372995
119.08897 25.212702 -24.073608
120 16.705431 -27.761707
62.935516 -24.273939 -25.103382
103.89893 -32.057716 13.724237
85.564209 -22.15572 26.940388
68.27877 -26.494244 22.667824
120 -8.1042442 11.265757
53.670883 -11.77918 -32.882439
24.684269 31.207775 15.799397
62.738056 9.3566418 33.571709
120 -29.109943 -13.343624
116.28432 -33.925179 8.1804714
107.98122 33.353912 10.378378
0 -22.834269 19.843864
51.914211 -14.152176 -31.885277
2.0990539 -31.744524 14.532674
0.8556962 22.718767 26.515194
113.98834 31.884417 14.171577
34.413612 -13.618629 32.150951
46.568008 7.006928 -34.240257
49.942902 21.720467 -27.269073
93.867081 -9.0705719 -33.653099
0 -13.347851 -25.103022
120 -16.042686 13.744342
75.120071 -3.6306458 -34.66357
81.009674 34.504326 5.0822983
0 -21.889141 14.92322
14.182184 -33.20726 -10.756917
111.74463 29.00633 19.354853
94.873123 -27.780264 -21.257128
18.202 13.567352 -32.176483
31.381969 12.326981 32.726578
20.240335 34.850697 0.50971645
0 29.663931 -2.8366547
101.11388 7.1090331 34.211205
51.056656 14.991968 -31.467112
64.590813 -30.336607 17.206383
120.00001 24.200945 -7.2917609
17.316685 33.72139 -9.2706642
56.17865 14.64641 -31.639177
71.830353 7.4836164 -34.104626
0 -4.7030783 -3.5498648
85.095474 34.735146 3.8475347
0 -21.039225 -27.367105
0 -0.010523174 -13.900037
108.4343 -28.25852 -20.562607
95.454475 -0.081533723 34.992447
0 -1.3521527 22.083586
0 -19.256454 5.7993622
118.56281 -10.836209 -33.150734
22.547457 9.852643 -33.430584
3.1342292 34.292393 -6.2160397
97.147072 25.404278 -23.863461
42.263596 29.225851 -19.000317
120 8.3190756 32.971146
84.415047 34.294209 -6.2063479
11.586714 -19.204187 29.169279
33.157768 34.378536 5.7552176
84.085342 -9.1449165 -33.631947
109.3977 30.476917 16.979774
28.96883 34.850697 -1.8952363
28.679646 -9.6314716 33.493507
0 12.158875 -5.1299667
5.9089208 -32.297638 -13.10492
119.31534 -10.703114 33.188602
78.762154 23.8584 25.559206
115.66048 18.471233 -29.722782
42.490597 -12.643482 32.636517
1.6628838 -20.657833 28.071537
41.308727 34.850697 -1.2834228
78.30809 -3.5308864 34.672817
43.731079 -34.850697 -0.21917862
66.024101 16.812138 -30.560772
70.76075 32.30434 13.087625
41.388733 -33.903923 -8.2941856
117.10044 -34.850697 0.03119874
48.639721 1.9903609 34.815563
20.512411 -25.119081 24.1763
100.8017 -30.617001 -16.753529
18.329544 28.737946 19.788311
120 -1.9687624 -0.47629166
0 30.254486 -1.5688624
112.12656 -25.013098 24.292564
56.869648 -11.398685 32.990696
48.817192 34.818123 -3.4036438
35.762085 -16.107729 -30.911526
33.392853 -32.041489 -13.766127
120 -18.277132 3.142149
8.7119436 4.6243658 34.571487
0 -6.269341 -0.44303322
6.0421014 -34.660488 -4.2469196
35.35305 -12.568837 -32.657761
70.619232 1.0339437 -34.90419
10.921469 34.775276 -3.6328728
0 -13.616786 -28.224667
0 -10.24375 26.130768
75.708588 -27.347719 21.731606
82.482979 -29.72291 18.197536
120 -19.678261 12.121116
101.26826 34.850693 2.7533934
0 9.9440823 -30.620068
37.140961 32.00845 -13.85142
70.388939 16.421408 30.755333
108.63692 -34.042946 7.5504704
60.845909 31.908516 -14.109367
100.33649 -3.4030662 34.684658
0 15.992695 -23.321911
120 -2.313575 9.2741671
49.149055 -10.55664 -33.230278
55.546501 16.878645 30.527657
69.191452 -18.041927 -29.94841
120 9.3592052 -6.7120905
0 -5.0767975 3.9208031
51.437309 -34.676819 -4.1595659
104.62204 -33.816875 8.7598534
0 20.352039 -8.3661175
47.538536 -14.993602 -31.466297
68.495689 -30.128119 -17.543104
0 30.015621 -13.87738
0 -15.517052 -25.702318
57.606216 -5.45298 34.494705
2.5041461 -30.885746 16.319492
3.8722587 34.850697 2.0820799
0 -6.6431146 -30.346634
70.202698 -8.3057022 -33.870728
90.597275 -30.337975 -17.204176
115.4168 -34.843327 -3.2688289
104.73695 -1.3056574 34.879013
73.35759 -34.462456 5.3063002
31.060839 34.850697 0.27226293
94.965057 34.850697 -0.23028803
63.072308 17.970234 29.98411
0 0.77831703 12.140924
0 8.4649773 19.130014
77.061195 33.694828 9.4127464
0 5.756907 29.794085
110.55988 27.415487 21.657269
30.235394 -34.672371 -4.1833501
93.660164 -27.748409 -21.29207
85.731438 21.600199 -27.359898
74.885483 22.666899 -26.554363
0 -3.1684432 -11.265408
60.149689 17.879391 -30.029343
55.433578 -34.850697 -2.0233505
81.073746 -34.850697 2.2561052
47.738869 -18.44986 29.738922
119.99999 -19.743607 25.054367
57.30442 27.141527 21.957787
3.2127285 24.151716 -25.237453
47.639385 -30.821053 -16.423973
6.0393405 -22.845898 26.419186
110.03809 34.850697 3.1370749
103.18887 -34.850697 -3.0969493
0 3.121712 14.970317
34.65921 5.0204391 34.534786
111.69821 -20.638937 28.085806
33.580936 10.831127 -33.15218
16.365942 18.449694 -29.739046
113.62996 -32.836136 -11.714907
117.32365 33.398903 -10.26223
82.048141 25.818054 -23.409569
105.81203 27.739212 21.302156
42.148232 -33.654732 9.6018639
94.244797 -34.665104 -4.2222228
94.717064 -33.793327 8.8858147
21.025114 3.5744488 -34.668777
24.559837 -25.691608 -23.548275
72.282181 10.835453 33.150948
36.003613 33.541428 9.8943367
38.121986 4.6894016 -34.56546
117.70274 34.055336 7.4841938
97.327965 -34.612782 -4.5021305
1.2777328 6.3734713 -34.409409
11.532948 4.5118055 -34.581921
82.903458 28.388475 -20.352726
120 -5.0166802 -32.343803
88.059181 -0.7412768 34.931313
84.551254 16.797953 30.567837
0 21.077171 21.26318
86.560173 -3.4309573 34.682072
90.125481 -31.522741 15.105165
120 -4.3571806 6.8097444
103.59467 28.800682 -19.686987
112.50003 34.850697 -1.1873865
0 -4.9708834 -19.12883
89.74334 -34.697441 4.0492253
19.588238 -7.241745 -34.173443
59.756664 -0.32095703 -34.970261
108.26645 -34.470474 -5.2633972
0 -10.171074 -26.961123
39.766869 31.397758 -15.427788
76.850891 29.715611 -18.209326
0 -6.5235372 8.0261641
34.243706 20.609463 28.108067
107.40778 -12.036223 32.809303
80.19828 -12.596306 32.649944
61.115128 -9.4213305 -33.553303
42.353054 -13.314136 -32.30257
0 -19.997528 13.344748
6.3751674 -20.154467 -28.451662
63.522545 28.397505 -20.338139
5.30792 -28.232437 20.604729
26.441896 -34.850693 0.66660625
68.634636 33.081398 -11.08182
99.015991 -34.400776 5.6362667
96.396584 24.224928 25.157145
10.582151 29.665316 -18.290556
88.118484 31.992075 13.893684
0 -4.8326426 -5.5633688
0 10.155208 32.1502
110.11493 33.474106 10.068111
46.282112 31.916721 -14.088189
35.359791 -8.8752804 -33.708664
5.2558289 -27.899849 -21.125946
15.847456 -23.64217 -25.7964
83.195335 4.469872 -34.585804
120 -20.067352 -7.4339571
96.950821 8.8869476 -33.705345
30.844688 3.2826443 34.695816
13.849089 -2.8692019 -34.734131
54.826668 30.509617 -16.92696
120 -16.070099 7.8133993
8.309391 -31.2927 15.662239
57.179874 -20.920212 27.8734
77.436028 34.350159 -5.9070272
110.27513 -22.629026 26.582962
0 14.438821 24.038097
120 -8.9973354 -33.544258
103.92911 29.784595 18.09791
79.689682 -34.364666 -5.8294191
84.132027 -24.157158 -25.231487
44.206272 -34.798027 3.5111375
35.594673 -25.174568 24.115442
28.983229 -13.715992 -32.10247
31.886627 -12.080133 -32.79681
68.3909 9.7338629 -33.464378
0 -10.884311 -23.285765
101.01257 23.727589 25.7027
23.520681 -33.377846 -10.316586
119.99999 1.0289826 21.834019
34.746723 16.720577 30.606363
27.994884 23.636951 -25.802124
55.714714 -30.912403 -16.276438
0 -22.292149 14.164356
35.630344 2.2380722 -34.79261
25.056875 -18.173649 29.882822
19.04113 -3.3501635 34.68956
49.930557 23.797375 -25.626148
47.285236 -32.394974 -12.85368
27.534534 -11.635075 -32.923439
85.582123 18.543594 -29.668137
0 -31.793999 4.6768761
26.200619 -34.839504 3.2892747
29.01289 -34.359467 5.857233
47.396927 -31.332628 15.595901
56.431583 12.287749 32.737736
116.30096 17.274912 -30.330338
23.502846 -34.850697 1.0456917
0 -4.91399 24.983728
107.84048 -33.71587 -9.3001785
89.903122 14.168219 -31.877289
6.1965752 7.0637765 -34.224079
65.786011 -9.5117292 -33.52758
97.959656 33.669178 9.5499716
48.65736 -10.950266 33.118282
120 -10.433776 -31.471584
10.891156 12.742849 -32.587036
120 -18.456486 24.680208
48.660564 -20.540096 28.16045
22.700129 33.910175 8.2607403
95.583542 32.955795 11.406033
98.932884 18.575993 -29.643673
111.84032 8.7095413 33.755821
7.8921747 -28.032263 -20.928024
29.264259 -20.220449 28.401836
39.466301 19.202913 29.170242
120 -22.284462 19.359085
99.689049 4.7413311 -34.560646
120 32.008732 0.32320714
40.246933 34.642689 -4.342133
117.46212 15.535202 31.196609
20.563223 15.395832 31.26601
13.731724 0.21489869 -34.980087
6.779151 -22.045351 27.023733
111.38849 2.9878604 -34.723133
19.452581 -34.000412 -7.7780108
113.59863 0.54380053 -34.949612
60.149696 18.792494 -29.480179
43.651592 26.339828 -22.83721
48.872509 19.953276 -28.603596
120 -11.255761 -17.631857
30.445339 -1.8750967 -34.826248
120 16.007431 -10.400974
12.830507 1.2581604 -34.883415
76.48558 20.112215 -28.483566
106.20593 33.417534 -10.214148
63.848282 -22.812008 -26.444782
3.4474111 34.593262 4.6065569
108.60141 7.3584337 -34.140244
8.2676048 34.72438 -3.905123
120 0.92799115 -28.233894
120.00001 4.8143988 14.070563
64.284637 -2.7546144 -34.744747
14.394857 -25.077564 -24.221848
67.329674 -34.202431 -6.6973109
120 -32.662182 -6.5636473
63.58057 34.09671 7.2628717
43.993286 0.47155124 -34.956306
40.434128 12.926798 32.495441
120 -0.49948964 10.906419
120 19.496414 28.407654
120 14.009346 19.916811
104.78632 -24.225468 25.156551
74.122307 -31.706264 -14.631435
0 14.16665 19.980782
0 -8.2307653 27.672543
120 -19.94838 -3.7040663
0 -33.474262 2.0241156
120 1.0961499 -33.297783
114.50885 32.420036 -12.788979
42.988628 10.045948 33.375584
41.705212 11.562968 -32.943954
84.213684 32.283798 13.140644
90.646851 34.495785 5.1279974
0 20.325338 19.387077
108.64088 12.863801 32.52681
31.21867 -11.597328 -32.934177
110.29884 -34.850697 -1.514791
53.640083 34.850697 2.2283144
63.595131 -21.471186 -27.457321
74.974075 -26.638214 22.509899
120 14.560615 -27.189127
120 -1.8987663 -30.161667
120 1.3003438 -11.391295
120 -2.6865726 22.902245
0 -12.510792 -32.104729
0 -4.6717949 -27.865767
120 -18.09095 8.9270325
71.974663 -2.5303199 34.76553
120 22.421406 -1.7754002
14.179916 23.585415 -25.858658
96.13707 29.080517 -19.235041
120 12.343599 16.129419
90.555313 3.1593373 -34.707245
116.31419 26.050064 -23.155067
94.51886 25.129702 -24.164654
0 -9.4827251 -31.874767
32.695885 1.9778237 -34.816727
18.631039 -25.256372 24.025702
15.404985 -27.12722 21.973482
120 -9.2890863 -18.975971
81.941879 -34.850697 1.510044
111.29648 34.641705 -4.3474069
119.35199 -33.084038 11.074996
45.152 -17.163548 30.385792
40.561932 -21.125906 -27.718067
11.778216 -2.0862885 -34.806679
100.77895 6.8252277 -34.291954
47.639252 -34.850697 -0.51734251
68.054749 26.686094 -22.457375
10.193932 -33.884911 -8.3958921
70.150055 28.814669 -19.664398
0 22.337402 -9.9750042
68.794586 -21.969229 27.081219
0 2.8260889 21.920254
0 0.33934355 -2.2559528
105.09421 -32.182655 13.401735
120 11.70032 -26.403799
114.42122 -26.235874 22.951242
37.988575 17.318436 30.30867
27.968346 -20.081873 -28.506485
120 -19.976948 -20.238012
39.726212 34.845654 -3.2563858
20.081249 -32.827461 11.737306
120 7.5544591 0.93536186
74.105171 14.282961 -31.820154
120 0.5803259 0.72637939
0 -7.1120782 -14.335863
120 -5.6274347 16.784174
0 -28.8918 0.38662529
4.7143221 -25.336838 23.937439
98.675011 17.15136 30.391861
0 23.415005 22.403992
113.33911 -34.088009 7.3094153
63.054672 -6.9958653 -34.243404
0 -7.4217949 25.033417
113.84256 -32.547054 -12.461107
120 4.0494723 -1.819294
85.445824 -7.555357 34.084213
0 -13.522182 -24.984051
62.047188 -34.556671 -4.8022971
66.751968 34.850693 -0.75845033
30.342064 15.014385 -31.455946
26.376801 9.1105604 33.641724
0 -2.861876 -17.743397
14.98287 -30.730597 -16.57007
120 0.79121077 -7.6632671
120 29.601171 1.5781586
120 6.020504 -1.277216
120 -29.476116 -14.625012
26.957703 12.107221 -32.789101
120 -29.536083 0.88908887
0 -5.6815872 -1.9388885
15.1416 10.902615 33.13184
0 9.9119072 6.9035254
14.754939 23.597549 25.845345
120 25.407238 5.4429321
34.920876 -26.038776 23.167448
64.136742 -1.980328 -34.816498
0 24.184057 18.972071
72.870911 9.613945 -33.498497
120 -17.746418 -24.272964
51.55991 -31.335386 -15.588785
89.345825 6.0816398 34.436455
0 -12.478338 19.91342
89.188759 29.310822 18.863083
53.75518 -2.8522565 34.735695
114.88158 -26.771614 -22.363564
85.084236 -18.237297 29.851128
118.56006 15.734819 -31.097214
63.197472 -19.621433 28.854191
17.54179 29.667377 18.287228
3.4090734 -32.814445 11.770898
19.996105 -13.519035 32.200542
34.891048 28.519449 -20.141191
31.49271 28.713043 -19.828529
120 18.548504 15.745453
29.274151 19.855824 -28.677189
39.659801 26.310163 -22.869751
85.259827 -33.40237 10.253284
66.013199 34.850697 -1.4641391
86.11705 30.2141 17.404236
19.180878 -10.131768 33.351162
120 -30.84796 -12.581501
57.398956 23.860268 -25.557156
0 -7.235671 26.790638
0.33530474 -30.618406 -16.751259
36.495136 10.794709 33.162544
35.786758 34.850697 -1.8005887
113.6173 -34.850697 -2.0881791
3.0521464 -17.951128 29.993626
39.722706 -30.536732 16.883171
39.43935 -33.78968 -8.9053421
34.529621 21.112604 27.728111
37.475388 -33.930023 -8.1545715
120 23.318813 -26.06044
71.802185 2.3416977 -34.783009
21.739061 33.982956 -7.871408
20.693077 34.348263 5.9171705
19.490089 13.323069 32.298122
16.925325 -26.256739 -22.928356
56.809174 -30.365057 -17.160431
101.9295 33.820229 8.7419233
54.866249 19.777987 -28.735966
58.047142 -27.53463 -21.526573
100.26537 34.519646 -5.0003691
43.185516 33.858841 8.5353651
92.207275 -32.61607 -12.282961
115.55156 24.566521 -24.782434
53.188885 17.939323 -29.9995
48.132755 29.759827 -18.137913
0.43777227 -2.5903971 -34.759964
20.18195 34.729031 3.88024
19.241982 -8.174818 33.907963
12.759769 -1.1417572 -34.894199
51.150463 -33.136616 10.93928
120 -28.534889 -14.466013
110.51041 -10.426649 33.267265
18.943226 15.009117 31.458572
10.596664 -17.137835 30.398598
62.523033 15.503076 -31.212608
77.286362 -7.719141 -34.037613
0 -4.018393 32.562023
85.894737 -7.8817053 33.991364
80.020866 -27.200878 21.892681
69.855385 6.989152 34.245316
120 9.2546129 -15.452203
96.955368 33.060158 11.136648
118.12333 -18.153923 -29.892645
33.817642 34.850697 2.8070455
78.983604 20.561148 28.144552
76.993393 17.863432 -30.037291
105.56553 0.63366508 34.941284
52.953949 -19.284943 29.108295
84.826912 -18.517796 -29.68762
51.705894 -7.2344599 34.175522
90.341843 20.233307 -28.392124
35.452324 -21.440311 -27.480639
1.1837983 -31.186308 -15.834065
8.8159199 14.269682 -31.826765
109.97977 29.572155 -18.441013
103.33311 9.8316021 33.436569
81.374634 26.130539 23.06679
119.33582 -2.8315651 -34.737617
60.187569 4.8935022 -34.546547
18.529743 32.192261 -13.376931
42.830208 -30.812426 -16.437906
3.495276 13.785728 -32.067749
0 -5.8810902 -28.009922
26.568575 25.000994 24.305841
100.1885 -27.005535 -22.106964
62.098675 -0.14108595 -34.986927
120 -14.698591 -19.001266
119.53078 -13.394254 -32.262676
120 12.63995 -18.091946
120 -0.91735977 4.3615875
120 32.61689 -9.7165051
14.093685 -33.708603 -9.339036
77.718399 34.850693 -3.0776653
32.559093 27.764795 -21.274096
26.200876 -18.117523 29.91077
63.865356 -5.8668842 34.456352
18.596714 -34.850697 0.061006963
45.191673 20.311213 -28.333292
83.100327 24.493469 -24.862568
120 -13.000143 -13.074023
120 21.417725 -19.986261
0 26.503304 -8.3951015
23.022758 -22.612116 -26.595734
6.7542672 -32.954052 -11.410524
0 4.978056 -30.76384
68.726868 -22.18573 26.917725
10.177481 -5.8116369 -34.461472
116.62087 14.196527 31.86319
0 4.3522029 -1.1782475
62.239529 34.850697 3.0401201
105.4492 10.145419 33.347282
45.318611 -22.210602 26.898941
54.430183 -15.620296 -31.15424
107.95218 -27.673805 21.373907
78.097473 -12.374917 -32.712933
43.324287 8.0313702 -33.94878
113.80184 26.368931 22.805283
72.069252 28.082359 -20.847115
67.075592 -25.141472 -24.151745
95.363983 -9.4559078 33.543465
70.018127 -27.50787 21.555931
43.263618 7.4361944 34.118122
94.409653 -34.850697 0.65815181
118.12514 -12.724517 -32.596165
80.13858 -28.464825 -20.229416
46.407036 -9.4363232 -33.549038
0 28.714275 -6.8477583
16.982574 -34.159954 -6.9245553
88.195457 0.66706723 34.938187
114.7076 32.807663 -11.788395
55.696781 -26.122431 -23.075682
120 -13.387189 -12.628308
120 8.1636782 -27.868443
42.201191 34.850697 0.60068077
81.905777 -13.528242 32.195957
50.498821 13.209259 32.35479
101.63518 -34.487083 5.1745424
28.042648 5.9673395 34.447044
0 -3.9534726 -31.122705
41.985073 34.850697 -3.1482081
120 -3.0968487 -12.241731
24.011356 23.313576 -26.066015
67.103546 34.196156 -6.7308683
68.694382 -13.667303 32.126717
113.08503 11.946911 -32.834713
101.38716 28.275517 20.535156
113.68024 2.0016718 34.814522
96.12439 -32.915546 11.509919
97.336868 -21.49696 -27.437859
89.387733 -32.343582 12.986335
56.59853 -30.716656 16.592587
0 27.813967 7.8011303
76.735336 -21.733692 -27.259087
120 16.310509 23.734474
48.788673 31.754147 14.507837
73.890671 -11.327377 33.010983
31.984598 10.802826 -33.160233
61.700691 33.923 -8.1921329
0 22.272245 7.6531296
100.76585 -27.432207 -21.638927
18.984661 7.7791624 34.020538
120 -9.435956 -13.337961
29.145735 15.8878 31.021038
117.87357 -4.1003094 -34.620049
62.388329 33.861252 -8.5224571
120 1.1955178 -15.44567
58.405201 -3.0273902 -34.719467
119.81286 19.334951 -29.070534
119.99999 13.116119 -10.229217
77.045387 13.652282 32.134193
114.39462 -9.8627853 -33.427696
120 10.268473 -8.3948784
66.258011 -33.63517 9.652359
0 -17.459579 29.094574
36.618896 20.138023 28.464081
89.068932 32.46785 -12.66556
77.65377 -12.850422 32.533474
120 -27.897081 17.585459
33.013866 32.407681 12.820879
120 -4.8672714 -23.249924
120 -0.44977385 3.0483885
3.6093736 -34.630352 -4.408133
67.069023 3.0078743 34.721279
0 -19.944313 21.177162
120 17.48546 18.473602
75.067154 19.514744 28.934761
101.31375 -0.90147746 34.916466
0 -30.797091 -9.8956947
1.0758805 -18.301161 29.819328
51.993744 -6.7551193 -34.311905
120 0.28960609 -31.716299
32.287651 31.816175 -14.347724
43.121193 -29.766487 18.127155
0 28.052563 6.113245
80.205063 33.329491 10.441411
120 -23.180367 -5.3517895
92.666107 -33.294708 -10.5312
117.77872 20.135925 -28.465666
74.740959 -34.850697 1.573927
81.068962 -11.330898 -33.009983
103.4029 15.18564 31.370674
68.709084 34.850697 -2.6264572
12.346344 20.762598 27.992424
78.497276 7.7361679 34.032772
57.898575 -18.882732 29.412029
117.38978 -29.133965 19.148716
120 -9.7390537 19.810003
0 -13.087712 -20.204994
70.842072 32.414692 -12.802779
31.08585 34.725143 3.9010334
120 20.352631 -15.439533
27.779367 -21.513876 -27.425085
61.691696 -34.850697 -0.57520127
120 4.7198553 -20.832191
98.128304 32.057407 13.72504
23.651567 -34.850697 2.9245298
61.387581 -34.650463 4.3005438
88.722809 23.286482 -26.086475
103.88145 -9.6830311 33.478844
0 -4.1517525 30.012245
12.58839 -30.977566 -16.171202
111.52522 14.270454 -31.82638
110.88921 -34.718708 -3.935477
36.105545 -28.529133 -20.125553
84.540047 -29.863018 17.971256
31.431978 25.214775 24.071333
76.925934 -34.427429 -5.4936709
58.457424 7.8805614 -33.991688
84.446068 -17.357244 30.289341
73.177299 34.850697 2.7882586
83.432816 -7.358202 34.140308
6.7463136 29.966917 17.803452
93.587807 11.948988 32.834122
100.80432 -14.833614 31.545959
0 -23.970722 -1.165761
25.868074 -18.1057 29.916653
96.681229 -30.982347 -16.163479
42.805 -27.714211 -21.329584
1.3140321 -12.229516 32.754303
83.766258 24.961084 24.349623
91.437988 17.029224 30.452675
13.780174 4.0331068 -34.626274
120 20.589079 -16.876427
68.088211 -16.802914 -30.565365
65.033638 -34.850693 -1.2142001
97.571869 19.289803 29.104628
66.910301 -32.299366 13.100472
84.152138 12.406002 -32.70409
100.66066 17.984261 -29.977123
0 -8.6117516 -3.7997231
31.859707 -34.216721 6.6208682
75.485703 34.170441 -6.8684359
0 -19.854176 -20.944347
69.1539 32.164574 -13.448406
0 -13.752787 10.857983
98.779747 23.276894 26.093716
107.34188 34.850697 1.5440824
120 11.457832 -7.519927
120 -8.3080587 -33.361923
0 22.436913 7.9133015
105.10332 -17.786871 -30.075413
0 -34.165581 -4.7743392
43.310242 33.616154 9.7014484
55.051056 14.2228 -31.850109
93.682693 -21.53071 -27.412371
120 -10.48688 20.950035
45.480522 29.245876 18.967976
6.6529655 28.293945 -20.505398
0 -23.053806 -6.0113306
120 -24.467646 -2.459187
120 23.362955 13.926771
52.260117 -8.7079678 33.756268
105.85852 -34.850697 -1.7420143
77.639023 11.327067 -33.01107
74.748383 -24.364468 25.004078
42.022598 -28.27771 -20.531614
113.38969 33.805801 -8.8190861
17.864685 -14.972369 31.476868
0.65694809 3.1139565 -34.711449
6.1117601 -21.57966 27.375406
12.06959 7.7943716 -34.016209
120 -14.337353 -15.767697
106.40427 -34.850697 -1.328442
0 -6.3588958 29.994186
120.00001 28.740618 17.405502
21.656208 19.352873 -29.056997
65.221542 32.552319 12.447533
40.386116 -17.840252 30.048832
16.925541 -21.820074 -27.193855
120 -12.660716 -29.405823
87.830208 -29.325397 -18.839539
119.99999 11.453988 4.1002817
94.747505 22.782988 26.466694
2.6340795 33.977856 -7.8986845
15.630806 19.714174 28.784157
117.60348 -27.07748 22.028046
15.78126 34.850697 -1.9138134
120 -2.2050104 9.348299
86.293007 -15.283777 -31.321804
92.696472 -34.630093 -4.4095149
0 2.2966914 -25.900732
94.956512 -34.850697 -0.052674592
94.592911 3.9919426 34.630089
115.15329 -0.9326728 34.913574
120 29.654591 3.502924
24.729967 -34.399017 5.6456633
53.09618 -19.408823 29.014748
13.067522 -22.994829 26.306721
53.409527 -10.904573 33.131283
111.3643 -34.850697 2.3466005
56.668404 -10.423302 33.268215
120 17.84631 3.623189
44.663273 32.666397 -12.153051
61.088959 33.523041 9.9417973
76.573883 20.129097 -28.470819
120 18.258152 -22.94306
0 30.298731 7.3932996
8.2211571 -6.8658552 34.280396
76.945595 -34.850697 0.67361665
86.039268 24.670959 24.667873
40.999676 -20.936398 -27.861176
41.311146 -12.891203 -32.513165
103.50879 18.836761 29.446751
120 23.642895 -25.667423
0 11.111714 -6.0223265
95.292534 -29.43277 18.666128
17.921505 -34.850697 -1.8833253
48.205818 -23.639191 -25.799669
89.440773 31.351585 15.546971
117.45545 31.233709 15.757515
65.709572 -20.465919 -28.216465
0 12.004725 15.550744
37.739597 -18.92275 -29.381813
120 -30.435436 0.14947796
0 -24.352516 23.238863
16.62858 27.130579 -21.969799
60.74115 7.6959386 34.04422
118.19717 -33.470264 10.07803
63.229794 -17.23797 30.348736
50.636475 -19.853401 -28.679016
33.885048 25.595211 23.654018
73.075478 12.12923 32.782841
112.71973 -33.989082 -7.8386173
120 18.139042 4.8809738
0 -14.477034 -22.516623
26.056694 20.340469 28.311199
85.011589 -16.624304 30.654301
86.024521 -14.230635 31.846207
7.493434 15.347255 31.290195
77.565369 21.662998 27.312473
47.800919 -20.55999 28.145424
0 -21.897856 18.566359
120 -17.7113 25.548582
3.7879014 34.496567 -5.1238098
104.54354 26.292652 -22.88896
58.052986 25.888622 23.332159
105.06039 -33.737907 -9.1822815
35.609592 -32.284206 13.139597
43.037224 15.018473 31.453913
61.418522 -32.548988 -12.456121
46.117996 32.832874 11.723319
104.3205 34.355843 -5.8766427
0 27.776016 10.139873
22.680273 -20.468296 28.21467
109.683 -34.669144 -4.2006097
120 16.314583 28.755884
0 3.0784578 -13.756036
72.048683 15.471922 31.228121
0 2.9473641 -18.970716
63.231083 -34.511215 5.0454764
72.03389 3.4323826 -34.681942
120 -3.3816037 16.385374
33.054741 14.510408 -31.706898
54.714291 16.452351 30.739923
31.111694 -5.6100569 34.480148
120 -16.162832 26.912264
111.18881 -10.567251 -33.227257
93.396156 34.154266 6.9549909
66.272964 10.132284 -33.351017
95.666725 19.955799 28.601688
98.049789 25.017525 -24.287708
7.9967737 -25.17276 -24.117426
0 -11.488207 13.778767
53.337471 28.494301 20.181808
111.18027 -33.34594 10.398962
0 18.215433 2.7560616
84.893333 34.8507 2.2666891
88.629761 -7.7320075 34.033955
120 21.242981 1.9740249
28.495377 -30.649239 -16.701468
98.603012 -28.917419 19.498449
0 2.9428468 11.637683
109.74879 -20.737835 -28.011124
110.49117 -13.929028 31.996389
114.85013 -30.363602 17.162781
86.918121 -5.2694716 34.511711
31.533022 -4.5893793 34.57473
0 -18.287239 10.878528
120 8.8415709 -5.7871776
92.271042 23.502438 25.923389
96.501305 17.846363 -30.045792
117.06753 -6.7872949 -34.302746
100.27917 -20.356976 -28.298735
33.252502 33.686069 9.4595976
62.823528 31.780287 14.440361
32.056656 -33.905991 8.2831354
100.04374 24.485743 -24.871044
42.522003 9.5165367 33.526215
60.918404 34.187141 6.7790918
35.583836 34.302715 6.1608353
120 -21.566076 -25.075409
88.930496 27.55761 -21.501366
44.243179 28.820791 -19.654507
120 -17.250505 0.28893948
45.000614 -29.787819 -18.092707
64.18927 -24.608139 -24.736782
0 6.0349808 11.285118
0 9.3747807 0.43821764
77.542465 23.642761 25.79575
41.669212 22.127029 26.962051
116.72046 28.785088 -19.712172
58.329922 31.180857 -15.842871
56.029732 34.850697 0.53438187
15.19279 34.027733 7.6318617
41.596855 34.850697 1.3302759
83.854408 -34.850697 -3.0137424
0 21.555817 21.128361
76.988571 -8.1844521 -33.90522
20.306311 8.1791248 -33.906742
89.751305 20.095993 28.495817
97.28611 -34.850697 -0.72188967
1.3378429 34.442661 5.4122038
91.737595 -29.403046 18.714138
57.945637 -8.3356714 -33.862198
80.564903 -14.944617 -31.490686
0 27.506121 12.727108
