# .PCD v0.7 - Point Cloud Data file format
VERSION 0.7
FIELDS x y z
SIZE 4 4 4
TYPE F F F
COUNT 1 1 1
WIDTH 1560
HEIGHT 1
VIEWPOINT 0 0 0 1 0 0 0
POINTS 1560
DATA ascii
9.7402124 -38.643951 2.411232
-38.852112 -9.0539904 2.4310207
-20.134697 34.374905 2.4960899
14.936964 37.067535 2.4654293
-11.324117 -38.163479 2.6033306
33.910492 -21.003551 2.740612
34.919567 19.115698 2.7823639
2.7992604 39.724297 2.7286434
-5.7303548 39.435612 2.8444481
-20.574053 34.140068 2.9849148
22.222807 -33.258785 3.0759144
38.262939 10.996239 3.0836105
26.408199 29.823923 3.0453587
38.905453 8.8781481 3.1432629
-3.8314061 -39.622643 3.5303593
39.645466 -3.5996163 3.5204792
-21.748766 -33.512165 3.6786461
-39.363407 -6.46345 3.6699867
-8.0702486 39.150528 3.6398411
3.8184721 -39.623909 3.7837696
-37.343143 14.02839 3.7219906
-37.147987 14.671735 3.727293
11.24778 -38.18663 3.9009666
-30.784142 -25.238169 4.1204834
32.604431 23.020142 4.283638
-39.480007 -5.2795396 4.3200302
-39.59639 -4.0979009 4.4382477
-31.758556 24.05084 4.4912434
-38.54723 -10.059052 4.5128345
-2.9990587 39.704617 4.5026207
-16.711418 36.204685 4.6554375
4.7501493 -39.532154 4.7563839
6.309236 -39.378593 4.7357464
39.052631 8.3929729 4.7934055
1.4488426 -39.857304 4.8124981
-38.691078 -9.5848532 4.8858643
17.72854 -35.661022 5.0867367
-38.470947 10.310531 5.0998783
32.802715 22.778536 5.0732899
-12.586456 -37.780552 5.1063347
36.864849 -15.476332 5.2606392
38.363224 -10.665634 5.2673817
-33.733231 -21.335188 5.3645611
-38.166916 11.312786 5.3761387
-36.919834 -15.373455 5.564631
39.455517 -5.5282178 5.594244
37.63467 13.067364 5.5428314
-35.729141 17.601107 5.5380726
-29.460567 26.850954 5.5452061
13.495887 37.504681 5.57477
31.314257 24.592224 5.6332016
39.922703 0.78478044 5.7778358
30.362101 25.752426 5.7605457
39.10643 -8.2156248 5.9414959
-22.710615 -32.858452 6.1246395
-23.061485 -32.570503 6.1991978
39.561962 4.4474678 6.126442
-35.628284 -17.789787 6.3008595
-26.750809 -29.542755 6.4402103
-4.1000328 -39.596184 6.5680695
39.411144 -5.9787502 6.5693188
-31.660007 -24.170923 6.6284466
39.64415 3.6129875 6.7022133
-24.56263 31.338541 6.7672157
-8.7671318 -38.939133 6.8144035
39.370613 -6.390254 6.8329048
12.724259 37.73875 6.8718433
-39.550632 4.5624943 6.9212151
22.265652 -33.223629 7.007772
35.285213 -18.431633 7.0549107
-39.842331 1.6008271 7.0038414
7.3267407 39.278381 7.032547
24.903112 -31.059113 7.4194145
-3.9027319 39.615616 7.4890041
0.399396 -39.960659 7.5962639
37.417896 -13.781967 7.5554943
37.467052 13.61992 7.6424408
14.501549 37.199612 7.6259518
12.197618 -37.898502 7.878561
1.2506876 -39.876816 8.0561352
-28.992146 -27.421722 8.052454
-39.397614 -6.1161828 8.0979633
39.921741 0.79458213 8.2621002
23.42189 32.274723 8.2634068
36.729477 -15.729594 8.3882141
38.186752 11.247374 8.3254719
-33.285328 -22.173153 8.4431934
6.2632198 -39.383129 8.7711906
39.275703 7.3539324 8.7200928
19.697632 34.608524 8.7080669
27.636534 28.815855 8.8706207
27.455233 -28.964647 8.9522743
39.248089 -7.6343045 8.9238682
-10.813385 38.318409 8.9950848
7.657743 -39.245781 9.0626049
10.086535 -38.538895 9.0056896
-29.76478 -26.480263 9.038868
11.886226 -37.992962 9.1204643
-38.72229 9.4819546 9.2000008
26.311922 29.902935 9.2933559
-20.709272 34.067787 9.215126
-14.768509 37.118633 9.2749596
26.297981 -29.914379 9.3117046
-39.656345 3.4891956 9.3932438
39.833862 1.6868039 9.4759846
30.119255 26.048336 9.5041084
37.176277 -14.578485 9.6284962
-33.771385 -21.263803 9.7003651
-39.307827 -7.0277405 9.7558975
-35.378391 18.257305 9.7576618
-27.124947 -29.235706 9.8966599
11.256557 -38.183971 9.9459553
-30.932455 25.057453 9.9912453
-26.657177 29.619591 9.9444866
-15.815607 -36.683502 10.044966
-19.778587 -34.565247 10.002375
-39.602982 4.0310001 10.027056
-7.7429233 39.237389 10.064926
-13.302801 -37.563248 10.104418
-39.876003 1.2589481 10.182638
39.246738 7.6479683 10.237799
-33.693134 21.410202 10.272999
-19.283388 34.829937 10.321388
-39.262531 -7.4876046 10.477104
39.563671 -4.4301186 10.49017
-23.865345 31.910788 10.409565
22.016043 -33.369301 10.5229
6.491179 39.360676 10.506897
39.69278 -3.1192412 10.652351
-11.002062 38.261173 10.602312
34.106937 -20.636023 10.741091
-4.241364 39.582264 10.734272
11.493884 38.11198 10.943813
8.6022654 38.98914 11.023474
31.624031 -24.214762 11.101389
-39.228104 -7.8145142 11.193984
26.288177 29.922422 11.277285
13.275031 -37.571678 11.398029
-37.002003 15.152977 11.307891
31.621824 24.217449 11.482267
-30.809479 25.207298 11.435137
-26.756346 29.53821 11.536369
1.967657 -39.806202 11.610947
19.085218 -34.93586 11.650381
-26.212444 29.984575 11.618967
34.772736 -19.3904 11.784687
38.591171 9.9142046 11.75456
23.444687 -32.256016 11.801252
-11.130678 38.222157 12.350807
-5.3926725 39.468864 12.339106
-27.779383 -28.698624 12.481842
38.008652 -11.834511 12.562342
-37.725922 12.766561 12.568197
35.398643 -18.219412 12.665033
-39.421707 5.8715158 12.646217
39.853786 1.4844654 12.755117
-16.78034 36.167847 12.72913
-6.4096775 39.368698 12.720547
2.0802338 39.795113 12.777929
-31.989935 -23.768906 12.806492
16.412008 -36.364723 12.993422
39.319359 -6.9106379 12.962589
-6.8288279 -39.327423 13.003979
-39.461887 5.4635015 13.034077
-25.718174 30.390209 13.177691
-24.011936 31.790487 13.179283
6.0167432 39.407402 13.179655
-21.262857 -33.771893 13.273563
-39.831608 1.709741 13.430929
-4.6611443 -39.540916 13.573437
6.3503785 -39.374546 13.591909
37.174477 -14.584415 13.569975
39.973667 -0.26737267 13.674297
-27.972193 -28.540386 13.734372
-10.085936 38.539078 13.849926
-37.266712 -14.280356 14.086637
-11.17522 -38.208645 14.109306
27.444492 28.973461 14.174328
25.191757 30.822231 14.109535
-21.914795 -33.423424 14.203568
0.99527806 -39.90197 14.346838
-33.153923 -22.350582 14.497772
39.192284 7.9326072 14.521542
-33.619625 -21.547724 14.666929
34.220421 -20.42371 14.68112
39.448494 5.5995197 14.69944
-39.253521 -7.5790997 14.713697
33.58363 -21.615072 14.890885
12.367088 37.847092 14.858656
-27.055145 29.29299 15.071602
-11.533864 -38.099854 15.110102
39.533264 4.7388034 15.18836
-16.883877 -36.112503 15.287361
-37.594643 13.199314 15.206032
-17.93281 35.551838 15.368614
9.4601669 38.728905 15.329428
-18.901237 35.034203 15.488958
31.872791 -23.91165 15.593224
-37.28363 14.224591 15.533314
34.741718 19.448435 15.599213
-39.746559 -2.5731988 15.632439
39.929253 -0.71832174 15.729322
-20.279362 34.297581 15.920601
39.35788 -6.5195594 16.013746
39.831352 1.7123345 16.092787
-37.813602 12.4775 16.081266
25.429844 30.626841 16.070137
15.130855 37.00872 16.167402
-39.252289 7.5916448 16.296965
16.332621 -36.407154 16.347466
39.277557 7.3350463 16.401119
29.910442 26.302776 16.445122
25.539305 30.537008 16.478271
-33.558342 -21.662374 16.53389
15.808911 36.687084 16.571007
11.908984 37.986061 16.552572
34.623337 19.669914 16.636496
21.29726 33.753502 16.676636
6.5621023 -39.353691 16.752167
16.02561 -36.571255 16.784521
-19.03141 -34.964622 16.706581
39.243683 7.6790247 16.746006
21.60442 -33.589321 16.863451
39.024471 8.4858027 16.827679
35.973217 17.144459 16.845999
-1.2729391 39.874626 17.08622
-33.65863 -21.474754 17.156496
-21.405947 -33.695408 17.246456
-19.339499 -34.799946 17.431517
-28.84841 -27.596867 17.423363
-32.189671 23.525532 17.493429
19.26569 -34.839397 17.53212
-38.599487 -9.8867798 17.501822
-27.685396 -28.775757 17.602673
-29.619793 -26.656935 17.686272
-5.4764256 39.460617 17.643652
-24.155653 -31.672541 17.756166
18.355705 35.32579 17.714071
-0.91962212 -39.909424 17.990723
-16.942511 -36.081161 17.95927
-28.32024 -28.240444 17.995424
20.878866 -33.977139 18.248854
29.801975 -26.434944 18.246517
32.893078 -22.668423 18.242741
16.444624 36.34729 18.318529
13.588644 37.476543 18.311462
-26.237314 29.964165 18.454037
36.608093 15.956697 18.536785
9.8750429 -38.603046 18.67178
-22.557217 32.984344 18.607519
7.5096393 -39.260365 18.79158
-19.828751 -34.538437 18.70369
-37.613895 -13.135847 18.728409
-38.578632 -9.9555321 18.89823
-3.1773376 39.687061 18.875904
-3.5941136 -39.646008 18.912878
9.272193 -38.785923 18.909578
33.25185 22.231256 18.906555
-34.032845 -20.774647 19.024744
-1.9146926 -39.811417 19.252043
-16.683264 -36.219734 19.484625
38.165783 11.316523 19.475842
-36.227406 16.668907 19.544239
-22.193878 33.274246 19.673252
-11.805947 -38.017315 19.899225
-25.670551 30.429296 19.800777
-14.38119 37.236122 19.874935
16.527918 -36.302765 19.97716
-39.957687 -0.42960656 20.091892
-29.859062 26.365385 20.025244
33.239334 -22.24651 20.151653
-34.294621 20.284895 20.188799
24.705883 31.22098 20.121517
-30.342798 -25.775951 20.279522
23.254044 -32.412472 20.342102
5.7268686 -39.435955 20.458593
-6.3812943 39.371494 20.671091
-26.768324 29.528376 20.841074
-39.573563 -4.3296843 20.962753
-19.469908 -34.73024 21.01305
28.196758 -28.356091 21.129942
-39.775585 2.2785199 21.142673
38.2743 10.958784 21.128035
-26.450872 29.788904 21.12628
-20.239698 34.318779 21.164579
-15.626571 36.784546 21.106651
8.6852884 38.963955 21.592045
39.483807 5.2409816 21.675949
-39.411411 5.9760151 21.623678
36.671188 15.838646 21.637581
4.8020577 -39.527039 21.725864
-24.013969 -31.788816 21.785898
26.51576 -29.735653 21.703243
-36.096458 16.913897 21.724892
-37.726795 12.76366 21.887455
36.937561 15.340302 21.821257
-23.990646 -31.807959 21.984386
39.55154 -4.5532589 21.980734
35.848892 -17.377062 22.006502
39.757973 2.4573438 22.058659
-39.921432 -0.79773957 22.114195
29.198889 27.169807 22.17144
-6.6574588 39.344299 22.176723
16.098291 -36.532406 22.207401
-0.18459922 39.981819 22.398235
24.554565 -31.345161 22.567101
4.5418916 -39.552662 22.643433
26.422791 29.811949 22.628574
-18.36684 -35.319839 22.787828
-39.674385 -3.306056 22.727652
12.48301 37.811932 22.850075
27.317719 29.077499 22.934809
28.868902 -27.571898 23.028898
14.943851 37.065445 23.088915
8.7542934 38.943027 23.091402
-29.119038 27.267101 23.157196
38.903816 -8.8835583 23.297491
19.007214 34.977554 23.261042
6.9801569 39.312511 23.294613
-11.474444 38.117878 23.389053
29.46994 26.839531 23.426304
39.494629 5.1310759 23.577633
-34.808933 19.322681 23.545704
6.8076596 -39.329502 23.777342
31.855707 23.932463 23.85952
-13.380678 37.539627 23.867683
-38.537411 -10.091423 23.948917
11.013099 38.257824 24.059153
3.3372922 39.671307 24.09277
-32.987206 -22.55373 24.184063
38.867676 9.0026875 24.269333
-38.282211 -10.932711 24.3013
-32.749107 22.843851 24.337416
24.713917 31.214386 24.339457
34.209137 20.444824 24.501333
5.7820969 39.430511 24.521408
-3.9755161 -39.608448 24.795618
-5.7367587 -39.434982 24.735165
-25.073137 -30.91958 24.7334
30.239792 -25.901459 24.72868
19.669212 34.623711 24.706326
34.954937 19.049532 24.891071
-21.921608 33.419781 24.877024
6.6319542 -39.346813 24.990511
25.592865 -30.493053 24.981194
2.9565408 -39.708805 25.033159
39.506279 5.0128288 25.048313
-37.18716 -14.542602 25.170822
-38.053902 11.685328 25.111485
-20.624891 34.112888 25.137796
35.596378 17.849476 25.230875
-31.223385 24.702948 25.257635
-39.599628 -4.0650649 25.388174
-36.153137 16.807858 25.312881
-34.005634 20.82555 25.333748
15.348365 36.933254 25.4529
31.707394 -24.113182 25.596542
-37.875492 -12.273476 25.574503
-38.737236 9.4326897 25.510941
-24.117876 -31.703543 25.636225
-11.112617 38.227631 25.677567
2.7343719 -39.73069 25.757589
-24.263136 -31.584332 25.766821
-29.480879 -26.826202 25.766163
12.487949 37.810432 25.700693
-25.324949 30.712927 25.818911
5.5909128 -39.449348 25.936775
-32.674049 22.935308 25.986786
-33.184578 -22.313232 26.12973
-34.166389 -20.524799 26.16395
14.320628 37.254498 26.166359
17.102215 35.995804 26.477385
-27.139603 -29.223675 26.669531
10.837675 -38.311039 26.88529
16.610958 -36.258381 26.898222
-32.37611 -23.298351 26.801052
37.025349 15.076033 26.898575
-36.799374 -15.598834 27.010008
39.783749 2.1956501 27.075081
-9.347146 38.763184 27.12718
-30.890661 25.108381 27.417631
-18.078827 -35.473789 27.572298
26.096622 -30.079628 27.560511
38.391758 -10.571569 27.508821
5.2768054 39.480278 27.672014
11.133266 38.221367 27.791309
2.5988908 -39.74403 27.804394
39.797173 -2.0593579 27.818871
18.814028 35.080814 27.855139
-13.800454 37.412289 27.899113
-33.006325 -22.530436 28.015751
34.240997 -20.385216 28.006659
31.553152 24.301126 28.08115
-28.383615 -28.163218 28.174868
31.861488 -23.925423 28.124714
-39.434502 -5.7416015 28.170805
-31.357445 24.5396 28.12542
-14.107738 -37.319073 28.377453
5.0016899 -39.507378 28.460646
34.542404 19.821329 28.437405
29.358053 26.975863 28.592873
36.289841 16.552107 28.874945
-3.8059156 -39.625153 28.90233
36.640232 15.89657 28.960457
13.290056 37.567116 28.985415
-17.60898 -35.72493 29.168739
-9.8005705 -38.625641 29.203196
39.861675 1.4044129 29.270975
34.21912 20.426151 29.261389
-17.125036 35.983597 29.323063
6.3895493 -39.370682 29.453211
-32.896877 22.663792 29.504948
37.407784 13.81531 29.710274
-20.850147 -33.992489 29.843273
28.246044 28.315643 29.931133
-7.412674 39.269917 29.954939
39.576698 4.297873 30.063276
-15.144382 37.004616 30.382957
38.3801 -10.610002 30.485439
29.217783 -27.146788 30.69701
-37.5089 -13.481972 30.613928
2.243968 39.778988 30.620136
1.7300508 39.829605 30.637312
6.9403262 39.316437 30.755671
18.788486 -35.094467 30.880928
29.274166 -27.078079 30.930357
-33.293571 22.157734 30.934078
39.668877 3.3619528 31.064444
39.708965 -2.9548988 31.187153
22.439907 33.080616 31.267433
-5.1652288 -39.491272 31.337128
8.7235765 -38.952343 31.360909
39.931816 0.69227362 31.301254
-11.50218 38.109463 31.365595
-5.5755286 39.450859 31.352119
12.32441 37.860043 31.490688
-7.4352722 -39.267693 31.535423
-34.851799 -19.242485 31.524992
36.332561 16.472181 31.610807
-20.1199 34.382816 31.666403
-4.2182403 39.584541 31.709108
-1.477087 -39.854523 31.831827
-26.536266 29.718821 31.832561
-38.625698 9.8003845 31.927509
-16.407427 36.367172 31.907621
-35.93037 -17.224625 32.061798
-36.593037 -15.984866 32.05463
33.449387 21.866219 32.015144
-0.83517212 39.91774 32.046547
-13.613854 -37.468895 32.193222
-23.124481 -32.518803 32.146843
21.813324 33.477661 32.291924
39.783886 -2.1942492 32.33263
17.872648 35.583992 32.35717
-5.2215977 -39.485718 32.47879
-36.650341 15.877657 32.480362
-32.054134 -23.690674 32.539196
7.240365 39.286888 32.590141
3.3685918 39.668224 32.632378
-39.68993 -3.1482372 32.729332
-22.256721 -33.230957 32.862587
-37.16375 -14.619774 32.839279
37.388111 -13.880163 32.876602
22.087872 -33.33091 33.090534
-34.649467 19.621025 33.047096
16.862022 36.124184 33.092079
36.1502 -16.813351 33.134041
37.05537 14.977069 33.222809
-2.8050942 39.723724 33.269386
26.882372 29.434778 33.324463
27.28813 -29.101784 33.675079
30.462084 -25.630602 33.913479
30.635359 25.41946 34.075974
29.0261 27.38035 34.085587
27.891155 -28.606895 34.151497
7.5130606 39.260029 34.247353
-39.791862 2.1132543 34.395378
-35.72411 17.610514 34.365547
33.476597 21.815308 34.575775
-20.864655 33.984734 34.576843
38.649998 9.7202835 34.799889
-37.610283 13.147755 34.726669
-1.4685489 39.855358 34.70668
-20.151405 -34.365971 34.805634
28.526463 -27.989161 34.853882
-7.8743882 -39.209942 34.934158
-18.421083 -35.290848 34.96196
23.795662 31.967979 34.960472
-38.044014 11.717935 35.090492
-39.556122 -4.5067897 35.1507
-37.384579 13.891791 35.19207
-35.360928 18.289974 35.169067
-4.707211 -39.536381 35.255859
-36.164845 -16.785944 35.254662
-33.867382 21.084198 35.289085
15.040662 -37.036076 35.398026
-26.205263 29.990471 35.308792
-20.347279 -34.261276 35.446262
-19.257444 34.843807 35.468369
35.136787 -18.709318 35.554512
-37.490929 13.541221 35.513821
-33.250591 22.232792 35.69149
9.7415161 38.643555 35.718021
12.128337 37.919525 35.849297
-29.339874 -26.998016 36.196564
-38.391457 -10.572575 36.126091
15.895702 -36.640694 36.352737
23.40497 -32.288609 36.380524
39.871082 -1.3089141 36.325462
-30.775787 25.248352 36.4575
13.858603 37.39465 36.470768
-25.498112 -30.570812 36.624382
0.3727347 39.963287 36.849052
-7.7437344 -39.237305 36.906879
28.873331 27.5665 36.985741
37.319294 14.107018 37.072784
32.109097 23.623711 37.096512
-24.665392 31.254208 37.13208
-16.971746 36.065536 37.139595
33.4436 -21.877039 37.229954
28.568548 -27.937878 37.32938
-39.28685 7.2407279 37.390198
33.192928 22.303055 37.326515
18.439436 35.28104 37.360489
-24.113575 -31.707073 37.44009
39.691299 -3.1343093 37.478111
23.8274 -31.941929 37.549229
-24.34482 -31.517294 37.539871
39.564987 4.4167242 37.552994
38.974167 8.6516399 37.673412
26.171116 30.018494 37.60453
33.955784 -20.918814 37.720196
-33.344463 22.062511 37.877689
16.334049 36.406391 37.805946
16.693392 -36.214321 37.993835
-11.596408 38.080879 38.045845
-33.452744 -21.85994 38.192196
39.853184 -1.4906682 38.162071
28.667233 -27.817635 38.433697
-27.6945 28.768284 38.486786
16.24897 -36.451866 38.520603
-10.909483 -38.289253 38.683853
-22.482941 -33.0453 38.64312
-0.86371905 39.914932 38.695755
38.820915 9.1568432 38.720528
-38.554108 10.036379 38.783379
-30.467373 25.624155 38.860977
-15.34468 -36.935219 38.900383
-32.556114 -23.079018 38.952919
-39.723473 2.8076355 38.941071
-37.141304 14.693779 38.909157
-38.761028 -9.3542595 39.033848
34.407677 20.073387 39.035065
35.201965 -18.587376 39.149818
7.3117828 39.279854 39.453979
17.235062 -35.924789 39.587517
17.517162 35.774002 39.514599
-2.3413188 39.769402 39.606323
11.614921 -38.075264 39.724827
-15.383072 -36.9147 39.727104
-39.917572 0.83690542 40.108452
-38.018734 11.801273 40.16925
32.912331 22.644968 40.105717
-35.319645 -18.367212 40.258476
39.521896 -4.8542523 40.297195
-11.896418 37.989876 40.2258
1.1725518 -39.884514 40.313858
38.297981 10.880714 40.456085
38.567753 -9.9914064 40.593788
-37.509392 13.480347 40.533825
-36.485344 16.186342 40.566864
24.703468 -31.222961 40.711212
-32.854019 22.716019 40.847378
19.073172 34.942303 40.87693
-28.316181 28.245388 40.918072
-34.699192 19.527996 41.063049
-31.057655 24.904892 41.023186
39.760746 -2.4291813 41.162968
-39.607697 3.9831378 41.126251
30.753975 25.274927 41.145344
25.381599 30.666435 41.145561
-1.7306534 -39.829544 41.200668
22.5163 -33.017921 41.342171
-39.329552 -6.8072042 41.482258
20.556078 34.14967 41.48188
15.29214 36.959793 41.439461
33.892452 -21.0373 41.596962
26.902142 29.418558 41.501472
28.283295 28.285069 41.654762
-31.944538 -23.824226 41.75132
-7.3298445 39.278072 41.758308
-20.455126 -34.203632 41.86602
-33.447098 21.870506 41.842625
13.748333 -37.428101 41.985245
-37.979759 -11.929751 41.987362
26.889395 29.429016 41.99028
-39.45153 -5.5687213 42.044029
-39.464676 5.435215 42.079918
-7.9330683 39.192139 42.063698
31.511646 -24.351704 42.238457
13.487007 37.50737 42.32653
-11.812031 -38.015472 42.47961
39.700233 -3.0435808 42.718361
-26.270323 29.937077 42.750328
19.89222 34.504513 42.876747
-11.233377 -38.191002 42.985516
-37.846489 12.369087 42.967339
3.0903802 -39.695625 43.091011
20.78392 34.027889 43.050198
-38.715256 -9.5051355 43.297649
-37.438171 13.715129 43.446171
28.473827 28.053295 43.412125
-1.0608221 39.895515 43.687889
39.736137 -2.6790593 43.879604
-31.315504 -24.590706 43.921364
-11.124037 -38.224171 44.070862
38.496395 10.226629 44.07299
-29.030201 27.375357 44.071945
-25.407127 30.645485 44.018612
11.622131 -38.073074 44.13702
-37.343243 -14.028074 44.153831
-17.195776 35.945789 44.23415
11.179464 38.207359 44.28793
32.949684 -22.599453 44.495209
33.091511 22.426634 44.412445
31.336481 24.565144 44.480469
13.021429 -37.648602 44.523804
-28.819092 27.632591 44.627029
39.455635 5.5270157 44.774582
-14.570547 37.17868 44.733154
17.135784 -35.977856 44.806934
10.877622 38.29892 44.835167
-38.957535 -8.706461 44.907173
-39.391548 6.177712 44.952305
-14.678146 37.146046 45.057228
-19.01899 34.97126 45.180061
34.347778 -20.18545 45.215473
-1.6285809 -39.8396 45.303802
-10.223785 -38.497257 45.311501
37.416832 13.785475 45.363522
36.336407 16.464989 45.385731
-18.37606 -35.314911 45.405624
-33.268639 -22.204374 45.481308
-17.348198 35.864319 45.441284
-25.71545 30.392448 45.658272
-16.956423 36.073723 45.614281
-20.07408 -34.407307 45.734055
-34.636185 -19.645878 45.771095
-9.883359 38.600529 45.793343
-3.5854888 39.646862 45.772659
4.9024024 -39.517155 45.884483
31.106819 -24.844986 45.891724
16.723507 -36.198227 45.960106
28.959 27.462112 45.915649
-36.851372 15.501547 46.0215
-25.123745 30.87805 46.039497
-15.59995 -36.798775 46.182106
-24.380552 -31.487972 46.124847
-38.15358 11.356749 46.192863
-23.06188 32.570179 46.119728
-39.400013 6.0917659 46.212276
-29.750853 26.497236 46.328964
33.0158 -22.518887 46.577644
27.234518 29.145779 46.5214
-37.947128 -12.037326 46.782944
13.648641 -37.45834 46.88858
-36.299816 16.533436 46.867973
2.0809348 39.795044 46.82843
-16.427692 -36.356339 46.928425
39.513184 -4.9427252 46.926186
-37.784767 -12.572554 47.017956
39.686081 3.1872859 47.067329
12.381754 -37.842644 47.173347
-35.008492 -18.949339 47.126904
38.376793 -10.620905 47.173214
30.348728 -25.768724 47.269764
39.70174 3.0283227 47.263268
-18.609728 35.190018 47.390831
-4.9159966 -39.515816 47.479828
36.103825 16.90012 47.459583
39.763168 2.4045985 47.548134
31.884138 23.897821 47.507198
-35.510048 -18.010994 47.628639
37.706352 12.831056 47.748013
6.0773082 39.401432 47.715675
13.289421 -37.56731 47.862816
-39.436153 5.7248321 47.831863
25.247847 30.776203 47.871838
19.58157 -34.670555 47.959042
34.176792 20.505335 47.930557
-32.708778 -22.892992 48.084099
37.33971 -14.039717 48.026371
27.747574 28.724724 48.075245
21.005461 -33.909473 48.140724
-16.202991 -36.47644 48.337891
26.27556 29.932779 48.425045
29.44331 -26.871981 48.577152
19.149372 34.901573 48.540039
-34.358826 20.164774 48.660179
-31.343929 24.556065 48.634071
24.84671 -31.1054 48.759033
33.723286 -21.353792 48.766075
-21.102226 -33.85775 48.854675
-26.269871 29.937447 48.825195
14.227759 -37.282669 48.91243
39.575401 -4.3110294 48.909615
-25.110716 -30.888741 49.073524
-39.235798 -7.7590895 49.061996
17.774143 -35.63665 49.116383
-39.389206 -6.20153 49.249489
39.973049 0.27366066 49.205467
34.912025 -19.129814 49.30109
-3.409246 39.664219 49.487114
-38.857693 9.035593 49.503815
-39.890144 -1.1153988 49.698109
39.555992 4.5081 49.623634
-34.300018 20.274803 49.68576
0.14939138 39.985287 49.709328
38.195068 11.21998 49.852798
6.0537601 -39.403755 49.967186
39.624821 -3.8092778 50.032158
34.272728 20.325859 50.168602
29.310827 -27.033407 50.311436
32.778511 -22.808025 50.319462
-37.924271 -12.112684 50.315857
-24.791504 -31.150711 50.531303
7.8038135 -39.23135 51.012341
32.84623 -22.72551 51.211746
-14.136887 -37.310234 51.323441
0.5731324 -39.94355 51.407879
26.298279 -29.914133 51.431522
-25.88356 30.254482 51.656944
22.490139 33.039391 51.660316
-2.796087 39.724609 51.800186
-19.869518 -34.516644 52.237682
18.328869 -35.340141 52.37812
32.619606 -23.001652 52.394783
-39.992149 0.079743326 52.329857
29.600344 26.680632 52.325447
9.3690748 38.756531 52.324867
-33.347183 22.05743 52.463192
6.9765677 -39.312866 52.5858
-38.384911 -10.594147 52.562962
-33.731941 21.337597 52.583813
-29.189642 27.181074 52.510384
-15.613954 -36.79129 52.620613
-27.369579 29.034939 52.621735
39.421295 -5.87569 52.754608
5.0731854 -39.500336 52.808418
30.136816 26.026937 52.879734
31.906792 -23.870218 52.928436
-38.862614 -9.0193663 52.986473
-23.650406 -32.087189 53.027687
31.108606 24.842812 53.088196
38.880611 8.9600439 53.242744
37.825737 12.437486 53.435852
28.580282 -27.92358 53.968822
-33.014999 22.519859 53.91217
2.049324 -39.798161 54.00872
-3.3419228 -39.670849 54.074345
30.65217 -25.398977 54.082573
4.6139431 -39.545567 54.124481
39.87043 1.3155642 54.202908
35.034451 18.90077 54.276428
14.149836 -37.306305 54.301689
-2.7954202 39.724678 54.379089
-4.4686441 39.559875 54.427242
-2.8164699 39.722603 54.472855
29.280571 -27.070278 54.612293
39.289066 -7.218214 54.626007
-15.961362 -36.605598 54.755955
-28.515533 -28.002476 54.878521
12.328165 37.858902 54.848434
-37.816433 -12.468175 54.969158
39.70644 2.9805846 54.906559
-39.330482 6.7977295 55.028374
-2.5959921 39.744316 55.010258
6.2253666 -39.386856 55.184975
13.799881 -37.412464 55.214024
23.034542 -32.592613 55.322796
-24.281277 -31.569443 55.317375
12.218813 37.892075 55.312862
-10.982736 38.267033 55.334557
-30.081589 26.094234 55.422611
6.2211661 -39.387268 55.578087
-23.930761 31.857105 55.558949
39.960743 0.39861611 55.68008
33.292328 22.160053 55.685379
-32.739189 -22.85594 55.731323
35.336082 -18.336458 55.82901
7.7055244 39.241074 55.980099
-39.934479 -0.66523945 56.003654
39.83371 1.6884028 56.059296
38.445271 10.395178 56.044937
24.563368 31.337938 56.165283
-3.6891663 -39.63665 56.283691
-28.036348 -28.487736 56.27367
12.201909 37.897202 56.255608
-0.53219837 -39.947582 56.374607
-23.470837 -32.234554 56.36882
25.975201 30.179277 56.351463
4.5956793 -39.547363 56.466732
-32.644783 -22.970974 56.503693
22.289047 33.204422 56.550491
-13.315802 -37.559303 56.622421
-27.175486 -29.194227 56.617653
-38.425426 -10.460594 56.653481
-39.764175 2.3943403 56.671722
37.351952 13.999367 56.692322
-35.119366 18.741907 56.696007
7.2819881 39.282787 56.708969
-28.883205 -27.554466 56.854027
-8.0413923 39.159279 56.863281
18.200768 -35.408611 56.970139
16.361481 -36.391731 57.106941
-27.322784 29.073341 57.268784
36.214577 16.692915 57.373192
-34.804356 19.331251 57.318172
-31.215336 24.712757 57.382965
-3.9835067 39.607658 57.346771
12.690482 -37.748997 57.686996
-36.357212 16.426064 57.684822
32.831444 22.743523 57.653435
-13.646472 -37.458996 57.715714
39.802029 2.0100446 57.765717
3.1492326 -39.689827 57.809059
35.765617 -17.532856 57.850578
6.8079882 -39.329472 57.91544
37.246719 -14.346254 58.010254
-39.046059 -8.4146461 58.077953
12.451082 -37.821617 58.224754
-39.093842 -8.2571144 58.21756
30.102905 26.068264 58.202126
-33.770462 -21.265524 58.341705
1.4047334 -39.861649 58.602814
-2.9432006 -39.710121 58.644646
-8.1333618 -39.131382 58.610649
-27.860039 -28.632431 58.65778
-6.4563494 -39.364105 58.948463
-8.13661 -39.130394 58.941696
26.697308 29.58666 58.99091
27.214655 29.162085 59.021503
-30.997051 -24.978735 59.234486
38.334293 10.761017 59.447079
18.263895 35.374866 59.551029
30.35656 25.759182 59.73304
28.695307 27.783421 59.850586
-14.702962 37.138515 59.880981
32.730545 22.866468 59.996773
-22.769478 -32.810146 60.063828
39.324516 -6.8583269 60.029167
-32.87907 -22.685493 60.194973
35.602554 17.837921 60.255562
25.923923 -30.221359 60.334587
39.013985 -8.5203705 60.476273
-1.808547 -39.821873 60.623455
-17.99156 -35.520435 60.694389
39.983471 -0.16782123 60.697525
-37.48103 13.573857 60.64814
-8.9244385 -38.891415 60.752811
-39.710793 -2.9363806 60.709114
18.088655 35.468536 60.83271
37.432522 -13.733768 60.965683
-36.994236 15.178595 60.980194
-14.680819 37.145233 60.959396
36.041264 -17.017155 61.069153
-27.164999 -29.202833 61.165863
-22.231102 -33.25198 61.251022
26.366041 29.858522 61.241753
26.954929 -29.375237 61.31546
2.5355451 39.750271 61.316788
12.866472 37.69561 61.485596
37.630684 13.080496 61.571445
-22.611385 32.939888 61.572277
-26.889206 -29.429171 61.66589
39.517269 -4.9012771 61.734604
-38.333252 10.764448 61.712055
20.48591 34.187176 61.709476
34.884132 -19.181999 61.853733
-39.058578 -8.3733768 61.836601
29.087269 27.305817 61.802139
28.713093 27.761749 61.824455
-39.276981 7.3409061 62.007286
38.961441 8.6935806 62.145851
38.745319 9.4060555 62.156952
-28.286026 28.282133 62.128338
23.293245 -32.380302 62.266068
34.602654 -19.708612 62.212658
38.276428 10.951775 62.234985
-13.188601 37.597893 62.277939
-3.7471218 39.630939 62.257584
-15.561745 -36.819199 62.344963
-37.841389 12.385902 62.329224
39.893154 -1.0848334 62.447708
13.601427 37.472664 62.41597
-17.696346 35.678226 62.753006
10.229494 38.495529 62.739372
18.652531 -35.167137 62.835884
32.817383 -22.760658 62.893085
-35.484665 -18.058475 62.884033
-35.171715 -18.64397 62.992802
11.884593 -37.993462 63.046982
-19.491375 -34.718765 63.064621
33.695877 21.405064 63.019035
29.78418 26.456627 63.068542
4.8142557 -39.525837 63.266239
-37.928375 -12.099144 63.258942
-37.982845 -11.91958 63.290749
-29.028095 -27.377918 63.334076
-32.227043 -23.479984 63.425144
-7.9090495 39.199429 63.468166
16.343933 -36.401108 63.519184
37.192581 -14.52474 63.579353
39.609749 3.9622867 63.670052
-0.94835269 39.906597 63.654739
8.1018066 39.140957 63.782768
-25.37851 -30.668968 63.963413
-39.92297 0.78210235 63.934078
-12.421717 -37.830524 64.152664
29.126156 -27.25843 64.117477
33.638779 -21.511896 64.130867
25.02327 30.960506 64.17701
-18.134371 35.444099 64.11515
28.200909 -28.352684 64.274429
-20.475342 -34.192825 64.311432
8.6066303 38.98782 64.379158
-36.016529 -17.063433 64.449516
13.42159 37.527218 64.499489
-6.3276267 -39.376785 64.672653
-26.074152 -30.098066 64.624649
-37.575588 -13.262136 64.87648
-39.762135 2.4150898 64.852966
33.97263 20.887302 64.819382
-9.5198355 -38.7108 65.164566
-25.15719 -30.850601 65.103798
35.859257 17.357674 65.163345
-14.467526 -37.209934 65.38652
-34.644524 -19.630272 65.343399
-10.055435 -38.548332 65.503433
-21.377586 33.710567 65.597771
-7.6518784 -39.246357 65.603607
-33.234745 -22.252102 65.653992
-22.654266 32.904701 65.680878
-7.3674812 39.274368 65.645287
-29.289154 -27.059822 65.857384
-14.302408 37.260021 65.81601
20.344181 34.262928 65.921013
-11.186872 38.205109 65.902626
39.379036 6.3047228 66.019196
-29.440483 -26.875423 66.246933
-33.179905 -22.318924 66.271584
34.028465 20.782833 66.214104
4.4630103 39.560432 66.227272
34.591896 19.728729 66.590538
33.009529 22.526531 66.574081
25.872068 -30.263916 66.67263
39.969601 0.30864003 66.642189
-1.1841527 39.883373 66.707275
-9.657774 -38.668957 66.825699
-36.310772 -16.512941 67.01899
-39.045002 8.4181213 67.167313
-39.641533 -3.6395719 67.379059
-38.118668 11.471846 67.34552
-32.771973 22.81599 67.331764
-3.4685016 -39.658382 67.484749
38.828144 -9.133008 67.489174
37.499706 13.512277 67.45713
-3.9794071 -39.608063 67.543327
-24.641466 -31.273842 67.591179
-1.9579962 39.807152 67.736206
0.21428558 -39.978893 67.867249
30.556948 -25.515007 67.981445
14.769667 37.118282 67.999451
21.839828 -33.463493 68.015823
0.94539446 39.906887 68.066452
6.1534734 -39.393936 68.100899
-23.470043 32.235207 68.208557
1.1433176 -39.887394 68.583076
-26.44298 -29.79538 68.551628
35.223267 18.54752 68.670868
15.292315 -36.959736 68.746552
38.867622 9.0028601 68.785797
-38.937099 -8.7738276 68.941193
29.792191 26.446869 69.010078
-32.163795 -23.557053 69.150749
17.630537 -35.713409 69.224403
37.961494 -11.989969 69.298889
-38.223331 -11.126801 69.265297
-31.172853 -24.764519 69.308868
-39.789177 2.1405017 69.378693
31.002348 24.972286 69.399551
38.335461 -10.757161 69.489792
39.78875 -2.1448336 69.403915
-9.3754253 -38.754608 69.596512
-22.173466 -33.28516 69.529877
39.218811 -7.8451452 69.559776
-3.7624156 -39.629433 69.642708
-38.397186 -10.553673 69.680153
35.215206 18.562599 69.65184
11.161993 -38.212654 69.854744
-39.867393 1.3464085 69.958939
-34.353722 -20.174324 70.045425
39.441017 5.6754646 70.095886
-33.26548 22.210289 70.32209
20.30302 -34.284931 70.477989
-32.428947 -23.233971 70.605263
-30.160145 -25.998512 70.794846
-39.758099 -2.4560478 70.741173
37.56673 -13.291327 71.026886
11.913998 -37.984539 71.223946
-37.592323 -13.206945 71.2127
-39.269936 -7.4124947 71.372269
-39.79158 2.1161289 71.496094
-3.264323 39.678493 71.407288
1.20952 39.880875 71.520111
-39.659126 -3.4609084 71.673576
13.256362 37.577335 71.680115
26.686596 29.595451 71.780289
24.219574 31.620083 71.738289
-15.343338 36.935936 71.724442
-3.9726217 39.608727 71.792603
35.64193 -17.764259 71.946037
16.119022 -36.521324 72.331604
-5.8729653 -39.421562 72.439392
35.052002 -18.867943 72.573578
36.982491 15.217297 72.530731
-5.6946874 -39.439125 72.695801
15.852089 -36.664005 72.604477
32.601627 -23.02356 72.79425
-2.1215281 39.791046 72.779282
-21.520786 -33.634026 72.96843
-29.981634 26.216026 72.952385
1.9088382 39.811996 73.014671
39.8853 1.1645999 73.158524
35.984962 17.122484 73.154999
23.6866 32.057484 73.102226
-14.879998 -37.084808 73.417343
31.939651 -23.830177 73.471497
38.609627 9.8533602 73.401413
14.633971 -37.159447 73.688965
-23.31311 -32.363998 73.611061
2.1258793 -39.790619 73.710144
29.965948 -26.235142 73.765915
6.5971851 -39.350235 73.866692
-1.2891477 39.873032 73.87693
-1.4571607 -39.856483 73.911438
37.995617 -11.877491 73.995422
30.845131 25.163853 73.978798
-29.614855 26.662951 74.062004
16.158138 -36.50042 74.286285
24.741659 -31.191616 74.262375
35.755978 -17.550892 74.286102
38.835861 -9.1075611 74.212555
-20.033997 34.428734 74.223785
-39.563438 -4.432467 74.385681
-10.31014 -38.471062 74.428551
18.940807 -35.01305 74.653702
26.010433 -30.15036 74.616356
-26.025318 30.138147 74.634155
-32.983398 -22.558369 74.71946
-36.367622 -16.406578 74.891876
20.145609 -34.369072 75.151985
33.045296 -22.482944 75.102768
-27.790386 -28.68959 75.232101
-33.972084 20.888317 75.256325
-33.47044 21.826832 75.242111
-10.345757 38.460262 75.32222
-2.7133198 39.732761 75.379135
37.541321 13.375088 75.438995
-23.448425 32.252945 75.409485
-21.322899 33.739796 75.409805
-27.527016 28.905735 75.635109
-19.329811 34.805122 75.658188
17.271381 -35.90538 75.74556
-27.149933 -29.215199 75.888313
-10.713098 38.348824 75.829857
31.043915 24.921637 75.922462
-22.867966 32.729317 75.924454
-37.229187 -14.404058 76.042252
-35.189926 -18.609892 76.15815
12.215902 37.89296 76.117706
-38.388424 10.582563 76.282791
17.001205 36.049789 76.362518
-8.054203 39.155396 76.499672
32.937626 22.614143 76.531944
-29.678547 26.585342 76.543068
-33.15358 22.351002 76.641373
11.010887 38.258495 76.675911
-37.874878 12.275487 76.709396
-39.34832 -6.6166081 76.808289
-0.18855846 -39.98143 76.906799
39.013615 8.521594 77.09269
32.618622 -23.00285 77.11972
-39.449852 -5.5857444 77.168442
-39.442379 5.661602 77.144745
-39.086037 8.2828369 77.118576
7.1805253 39.292782 77.351349
-1.7573683 -39.826916 77.471382
23.699097 -32.04723 77.427345
-33.221046 -22.268799 77.453758
39.632061 3.7357316 77.47084
-31.665436 -24.164316 77.602203
25.740248 30.372095 77.708809
22.489964 33.039536 77.773224
20.474649 34.193195 77.757645
-24.098454 -31.719484 77.963486
36.58865 -15.993067 77.922546
39.820686 1.8206033 77.943237
-33.801392 21.207664 77.972824
-32.009537 -23.745022 78.083221
-37.806557 12.500721 78.18689
-36.741684 15.70676 78.144798
33.804272 21.202274 78.137123
14.88034 37.084709 78.184883
-23.807293 -31.958431 78.250923
-7.6789503 -39.24369 78.351341
-35.393051 -18.229872 78.311081
37.143776 -14.685631 78.456993
-22.4543 33.068802 78.536034
39.325928 -6.8439436 78.683968
37.114662 14.781599 78.649002
-11.3353 -38.160088 78.759445
-20.020468 -34.435963 78.884598
-37.537605 13.387352 78.897888
-6.2158079 39.387794 78.885864
-39.813129 1.8973296 78.942947
3.7945859 39.626266 78.985062
29.325653 -27.015343 79.127335
-36.391487 16.361927 79.365189
17.083424 36.005844 79.6605
24.650671 31.266289 79.729607
17.540506 35.761528 79.775589
9.0097504 -38.865532 79.886818
-26.914919 -29.40807 79.823685
5.7274423 -39.435898 79.926559
37.170036 14.599056 80.199585
36.691719 15.800238 80.199593
28.00046 -28.517189 80.236862
-33.514507 -21.744385 80.208649
36.923122 -15.367315 80.475189
29.341833 26.995632 80.594139
-39.869476 -1.3252299 80.687332
36.782516 -15.630369 80.908058
-36.20266 16.715212 80.988197
16.04563 -36.560555 81.044594
8.3688087 -39.059959 81.106262
20.510227 34.174179 81.127876
-37.391533 -13.86886 81.238976
39.163471 -8.0275822 81.477905
-14.986722 37.052441 81.400604
24.887463 -31.07196 81.664391
31.152552 -24.789257 81.650772
-16.166342 -36.496033 81.703186
-9.0696163 -38.847374 81.850113
11.389267 -38.143715 81.891365
-36.330254 16.47649 81.84037
29.135464 -27.247097 82.043846
-37.813587 12.477547 82.081932
-13.711859 -37.439167 82.16375
39.821796 1.8093446 82.178406
-3.2068388 -39.684151 82.255592
36.678131 -15.825659 82.297813
13.669123 37.452129 82.267586
0.0012836725 39.999874 82.217934
24.101242 -31.717194 82.330109
-38.602818 -9.875802 82.424286
37.250038 -14.335331 82.601906
39.594482 4.1172538 82.600494
1.9333279 -39.809586 82.729584
11.076899 -38.238476 82.797173
39.18148 -7.9682274 82.798233
-25.841936 -30.288647 82.875046
39.279663 7.3136959 82.838531
38.876869 8.9723911 82.878448
36.97654 -15.236933 82.98806
-37.404617 13.825737 82.954773
17.210129 35.938118 83.070259
-39.925598 0.75541747 83.145821
14.059538 37.333698 83.184433
-39.438244 -5.70362 83.318039
38.105583 11.514961 83.364044
23.916035 -31.86919 83.442055
-1.0931009 39.892338 83.461136
-26.647541 -29.627502 83.671463
-35.214508 18.563913 83.650742
-39.982315 0.17953482 83.961197
-39.276932 -7.3414507 84.052162
-28.675659 27.807365 84.096413
-5.215744 39.486298 84.007797
35.612164 -17.819946 84.13887
-24.449512 31.431374 84.164848
30.424809 25.676022 84.291046
37.518688 -13.449711 84.6175
39.264122 -7.4715109 84.6828
-39.432335 -5.7636032 84.6707
-36.22237 16.678326 84.628906
27.451914 28.967369 84.696724
13.668642 37.452274 84.613907
30.31893 -25.805033 84.793503
-37.677773 -12.925266 84.722473
11.529547 38.101162 84.731819
-39.452728 -5.5565515 84.975204
-23.303616 -32.371788 85.033768
-39.632668 3.7296019 85.034698
29.02486 -27.381866 85.131042
-39.298851 -7.1188364 85.153809
29.096931 27.294044 85.379669
1.322785 -39.869717 85.429596
39.955536 -0.451455 85.428406
-15.960216 36.606209 85.450172
26.851126 -29.460423 85.585693
38.530506 -10.114187 85.515656
35.550217 17.935844 85.536644
-37.235985 14.381649 85.825996
-1.8436825 39.818413 85.815842
-37.011948 -15.120205 85.981232
39.694569 -3.1011231 85.999817
-35.988201 17.116432 86.058571
-9.779335 38.63208 86.146286
-20.973839 -33.926373 86.391731
-2.4347897 -39.760193 86.711517
-30.302639 -25.824886 86.755234
-31.485111 24.384037 86.785324
5.5927439 39.449165 86.744621
-39.366676 -6.4302197 86.999985
-33.694508 -21.407625 87.082176
-5.1659269 39.491203 87.035004
-6.4373698 -39.365974 87.276169
37.829247 -12.425929 87.297958
-38.004921 -11.8468 87.264687
39.803772 1.9923075 87.23584
-8.5047121 39.018734 87.217598
32.483341 -23.16769 87.376099
3.4194829 -39.663208 87.418686
-30.491003 25.595364 87.438965
-34.281868 -20.308752 87.746902
-7.7909212 -39.232658 87.853226
38.234329 -11.090548 87.86673
-6.3050184 39.379013 87.871536
18.809372 -35.083305 88.074829
-37.399487 -13.84266 88.009003
39.262726 -7.4856873 88.062973
37.59021 13.213926 88.032135
29.136719 27.24556 88.093124
-21.590763 -33.596619 88.150681
-7.2739744 39.283577 88.228516
39.542099 4.6491504 88.363953
-7.7797589 39.233761 88.333168
-16.235226 -36.459217 88.677177
39.568405 -4.3820772 88.618317
-38.825989 9.1401033 88.624847
-39.918365 -0.82879257 88.784889
39.707489 2.9699457 88.927238
30.271204 25.863184 88.951035
-35.816395 -17.437855 89.048874
34.007271 -20.822495 89.152817
-31.534355 24.32403 89.30442
26.108173 -30.070148 89.434128
-39.640537 3.6497338 89.425369
-0.40156564 39.960449 89.457962
30.549824 -25.523687 89.532593
4.2625756 -39.580173 89.772888
-26.869396 -29.445427 90.014702
-37.827393 -12.43204 90.020027
-29.211426 27.154531 90.049149
-16.245804 36.45356 90.032768
36.173199 16.770325 90.131714
-18.225233 35.395535 90.231171
15.341803 -36.93676 90.330635
-26.622126 -29.648357 90.435608
39.460819 5.4743905 90.421791
-38.976772 8.6430435 90.482796
-9.3259211 38.769623 90.565521
-17.79987 35.622894 90.798218
39.987865 -0.12319588 90.842834
-39.296104 7.1467857 90.849991
36.886253 -15.436293 90.942093
-39.927132 -0.73987544 90.900604
-26.857307 -29.455349 91.017151
-38.290585 10.9051 91.018402
39.714451 2.8992224 91.277306
39.607136 3.9888387 91.218048
9.179925 -38.813911 91.3619
17.753294 -35.647793 91.327583
39.259064 -7.5228672 91.469078
-8.9444084 -38.885353 91.543671
-24.889532 -31.070259 91.516335
17.033855 36.032337 91.512848
-16.139812 36.510216 91.797928
-9.0076265 38.866177 91.776382
20.331547 -34.269688 91.892639
28.95862 -27.462576 91.881119
-1.1754296 -39.884232 91.922974
-36.939072 -15.337475 92.081322
19.751282 34.579842 92.2052
17.331259 35.873375 92.285706
9.1982813 38.808342 92.215416
37.572605 -13.271956 92.383667
-33.418369 21.924252 92.303139
27.649361 28.805328 92.345306
32.255089 -23.445812 92.440933
-34.542477 -19.821188 92.568962
-37.063599 14.949923 92.507843
-33.336502 22.07741 92.530334
-38.451233 -10.375516 92.698074
-34.33667 20.206232 92.621643
4.60219 39.546722 92.626923
1.4288826 -39.859268 92.815842
33.180565 22.318123 92.809509
37.407738 -13.815456 93.051781
-36.623207 15.928413 93.140518
2.4614139 -39.757572 93.27021
6.8997774 39.320427 93.237953
-29.501476 -26.8011 93.395844
-10.064445 38.545593 93.366867
26.708223 29.5777 93.533401
-1.1930889 39.882492 93.566139
-14.379627 -37.236595 93.625771
10.8753 38.299625 93.652466
4.9535522 -39.512115 93.789154
-39.335907 -6.7426519 93.748283
-33.552635 -21.673058 93.861771
-30.008259 26.183586 93.851929
-21.448818 33.672489 93.897232
-8.2201252 -39.105064 93.941765
13.864313 -37.392918 94.037888
34.3297 -20.219265 94.1717
39.354977 -6.5490332 94.158974
-19.289276 -34.82679 94.287445
27.866341 28.627258 94.253532
31.117117 24.832441 94.368454
4.3556318 39.571007 94.569351
-37.847569 12.365531 94.66188
36.683765 -15.815116 94.777664
5.9204021 39.416889 94.880341
-31.46689 -24.406235 94.988266
33.229427 -22.258581 94.927704
33.988319 -20.857946 94.962891
-7.7518406 -39.236511 95.024605
14.870373 -37.087734 95.069809
-29.444523 -26.870502 95.086601
38.006012 11.843206 95.013313
-36.966835 15.268906 95.23391
12.966222 -37.665352 95.33577
-29.098886 -27.291656 95.319672
-37.689259 12.887409 95.387848
-8.300396 -39.080715 95.411102
12.036978 -37.947235 95.49015
37.236645 14.379475 95.495377
35.435257 -18.150925 95.5112
39.687622 -3.171638 95.554573
-29.575569 -26.710821 95.676735
-16.217955 -36.468445 95.791473
39.869797 1.321973 95.773804
39.474499 5.3355265 95.761353
33.294258 22.156448 95.716743
34.494324 -19.911278 95.959251
-39.697601 -3.0702729 95.966217
-30.825193 25.188152 96.064896
37.072437 14.920789 96.229477
-34.334587 20.210131 96.376236
19.222647 34.862404 96.434631
19.386206 -34.774982 96.548569
28.565203 -27.941956 96.648643
-28.610659 -27.886566 96.781662
-4.9405127 39.513401 96.996048
37.665157 -12.966853 97.05191
-26.168585 30.020573 97.055977
-2.4005141 39.763573 97.055382
32.312649 -23.375683 97.123734
23.762529 -31.995169 97.241882
35.664444 -17.722134 97.213501
30.653816 -25.396975 97.362671
-33.564762 21.650368 97.433968
-7.0043468 -39.310131 97.533867
39.380169 6.2932353 97.78141
-10.258329 -38.486786 97.81012
32.698662 -22.905319 97.803345
-37.758427 -12.659383 97.810913
-11.207802 38.198765 97.832855
2.2698455 39.77644 97.8825
-30.467598 -25.623882 97.924652
-37.834579 12.40835 97.96312
37.901623 -12.187332 98.099136
27.809196 28.674156 98.05761
-16.926689 36.089622 98.106865
37.230217 -14.400663 98.259583
37.252922 14.325808 98.320389
39.334213 6.7598124 98.493607
-33.244293 22.240467 98.72509
14.099533 -37.321564 98.829742
28.9491 -27.474176 98.820801
13.273965 37.571999 98.915283
39.616257 -3.8962038 99.075867
-4.5781398 -39.549091 99.106216
39.191074 -7.9365811 99.174667
-9.9073849 38.593239 99.155151
12.11275 37.924248 99.274971
8.2725945 39.089149 99.41452
14.817627 -37.103733 99.578255
38.759148 9.3604612 99.681099
11.235551 38.190346 99.693382
-22.063347 -33.344021 99.773514
12.055045 37.941753 99.792107
-22.354656 -33.150581 99.892738
33.913158 20.998566 99.847305
-24.418362 31.456942 99.863708
10.447525 38.42939 99.865875
-38.512108 -10.174833 99.963509
39.907837 0.93578202 100.01447
-7.2309189 -39.287819 100.116
-39.91819 -0.83061659 100.20175
-0.51381636 -39.949394 100.31384
39.60627 3.997617 100.338
21.518681 -33.635151 100.55803
-30.330059 25.791473 100.54283
-39.526989 4.8025432 100.61786
-29.7183 -26.5369 100.74416
39.66272 -3.4244483 100.73058
17.537449 35.763161 100.75819
12.111623 37.924595 100.881
9.5980263 -38.687084 100.90786
8.6542292 38.973381 100.98278
-39.536144 4.7095776 101.0838
25.660656 -30.437418 101.40869
-34.591881 19.728758 101.40651
31.617603 24.222595 101.40029
-30.475063 25.614784 101.51564
-12.289788 37.870544 101.54135
-0.82308054 39.91893 101.64998
-10.748704 -38.338032 101.74799
-34.464943 -19.966249 101.70453
-13.663661 -37.453785 101.94041
39.488708 -5.1912246 101.92329
35.74527 17.570925 101.98077
35.733162 17.593573 102.0985
0.2925486 39.971184 102.27177
30.065577 -26.113749 102.31378
-36.979843 15.226042 102.44152
25.102097 30.895815 102.46786
1.5160401 -39.850685 102.5297
2.7831266 -39.725883 102.56791
-4.7156816 -39.535545 102.59413
-37.283737 14.224241 102.51089
-11.74938 -38.034477 102.64041
37.826611 12.43462 102.68487
37.176319 14.578344 102.65785
-26.024216 30.139048 102.62678
-32.3908 23.280453 102.72719
-30.458132 25.635414 102.71931
15.756248 -36.715233 102.82008
-38.84359 -9.0820847 102.81841
-16.328178 -36.409531 103.12653
-34.125603 -20.601105 103.10303
37.133797 14.718517 103.21774
10.968336 38.2714 103.24803
-39.560902 -4.4582367 103.36171
36.459679 16.234358 103.42867
-24.476473 31.40925 103.4205
-29.14052 -27.240932 103.50371
39.394276 6.1500015 103.51869
-4.2992191 -39.576565 103.61942
37.115936 14.777401 103.67534
7.058692 -39.304779 103.78458
-37.800953 -12.519206 103.77756
9.2945118 38.779152 103.86992
31.684195 24.141453 103.9734
-10.502916 38.41259 103.98944
-35.336891 -18.334942 104.07494
39.597668 -4.0849514 104.05287
18.771639 -35.103474 104.40674
33.800762 -21.208843 104.42172
37.522179 -13.438202 104.49269
-38.672215 -9.6470356 104.40074
-39.57803 -4.2843528 104.4108
-38.806385 9.2047329 104.52463
20.479866 34.190407 104.50908
-36.178719 16.759995 104.66304
39.370068 -6.3958101 104.74764
-39.288906 7.2198725 104.78649
39.765663 2.3792493 104.82272
25.470081 -30.593817 104.90907
-34.918953 -19.11685 104.96135
36.426071 -16.29723 104.99168
39.524456 -4.8282843 104.92966
23.748722 32.0065 104.9407
37.192345 -14.525503 105.00146
39.104942 8.2205219 105.02045
-21.77931 33.495842 105.0162
-17.223194 -35.931133 105.14963
-37.01553 15.108397 105.14246
-36.173866 16.769075 105.16087
1.7369658 -39.828926 105.25418
21.939396 33.410271 105.28088
14.460974 37.211922 105.29097
11.559626 38.092037 105.40627
-4.6712394 39.539921 105.45711
1.171351 -39.884632 105.53944
24.763233 -31.173914 105.55904
39.557945 -4.4882512 105.5966
-12.7561 37.729092 105.59845
-16.467222 -36.335209 105.66139
-14.644363 37.156292 105.68616
-36.647552 -15.882872 105.97501
33.622108 21.543076 105.99596
30.218233 -25.927731 106.14244
3.1958106 -39.685242 106.25291
31.325462 -24.578571 106.31687
35.109974 -18.759474 106.41364
-39.193657 -7.9280787 106.4884
-7.4550781 39.265739 106.46112
39.085793 8.2836571 106.62927
-35.62804 17.790243 106.62009
21.136259 -33.839558 106.85144
28.871284 -27.568991 106.89295
8.7839203 -38.934036 106.90118
-17.028975 -36.034946 106.99894
-37.184525 14.551291 106.91679
7.6320944 39.248302 107.06693
-16.766388 -36.175301 107.15561
-27.672623 -28.78624 107.18363
31.098862 -24.854683 107.23364
-23.764874 31.993244 107.39276
34.3559 20.170256 107.41949
1.950248 39.807919 107.48991
6.2272329 -39.386673 107.6185
-24.961828 31.010931 107.72466
-18.634317 35.176876 107.74832
-6.6276703 -39.347233 108.09833
39.675232 -3.2974265 108.09608
-39.797226 2.0588171 108.0154
28.539864 27.972832 108.10846
-38.960159 8.6978035 108.39118
39.466331 -5.4184189 108.49207
-18.168188 35.426025 108.49953
30.500397 -25.58392 108.57039
29.221743 27.141956 108.54217
-25.730852 30.37981 108.58881
-11.642846 38.066792 108.66631
28.644428 -27.845415 108.74821
-9.3845806 -38.751831 108.84011
-25.68919 -30.414001 108.80785
-38.446068 -10.392548 108.87448
33.415733 21.929176 108.87695
33.443142 21.877903 108.9071
38.053158 -11.687794 109.04109
30.595961 25.467472 109.09612
-18.916546 -35.02602 109.13295
-5.7262669 -39.436012 109.25584
-22.593481 32.954582 109.27026
-26.682594 -29.598732 109.36691
30.699415 25.341412 109.39751
-1.2794609 -39.873985 109.49726
-18.16209 -35.429287 109.43893
-36.302513 16.528393 109.43756
3.8623433 -39.619591 109.67587
2.7235148 39.731758 109.71659
-31.302879 24.606083 109.85313
23.78529 -31.97649 110.08665
-32.690083 -22.915775 110.01788
