# .PCD v0.7 - Point Cloud Data file format
VERSION 0.7
FIELDS x y z
SIZE 4 4 4
TYPE F F F
COUNT 1 1 1
WIDTH 1600
HEIGHT 1
VIEWPOINT 0 0 0 1 0 0 0
POINTS 1600
DATA ascii
72.909012 4.2940507 34.634521
34.392899 24.844681 -24.556255
58.860954 -9.1303968 33.65934
0 13.634924 -15.659914
80 20.708698 27.257362
14.965567 34.718105 -4.4082189
67.951805 3.5997448 -34.765625
75.729095 7.5577059 34.068836
80 2.7082438 16.106682
28.401588 18.017221 29.914825
0 24.143715 11.12478
11.363826 -8.3488817 33.862831
10.422511 22.021107 27.199232
79.306152 -0.069117546 -34.873913
80 -17.785646 -2.7986073
16.41964 -16.573658 30.779549
67.659439 -26.153946 -23.068644
51.714336 28.557133 -20.134531
63.237755 -1.7896814 -34.873913
0 26.786478 15.83822
0 16.471563 2.6898546
0.53611279 -17.021473 -30.437796
78.741249 -27.020218 -22.084368
23.391472 -14.711974 31.621082
3.5249615 -25.980944 -23.265209
2.3967028 24.525906 -24.918455
80 10.693863 -31.538668
69.922638 -29.664989 18.538063
0 4.0006213 20.507214
80 -21.439157 27.586323
51.264851 -33.035824 -11.318924
70.526764 34.279308 -6.4742761
6.6128874 10.664758 -33.218586
48.798241 16.194107 -30.899992
51.410042 -23.918037 -25.510551
10.707006 34.16296 7.5418382
77.478668 34.886456 -0.44503343
80 -31.946243 6.1269488
18.31839 25.645199 23.725824
21.188694 -34.578613 -5.0855045
38.079075 -19.418144 28.967968
76.194229 15.019629 -31.556095
0 27.876032 -14.119998
4.6558523 -16.114832 -30.944279
13.965039 -31.121187 15.737319
23.446112 5.2932343 -34.475246
49.846691 31.025871 15.926369
0 5.8748498 -29.317705
0 -25.314861 -7.4117308
59.453758 33.788036 8.7661114
1.5716314 24.779497 -24.63032
34.798256 -34.769291 -3.2032378
15.439763 -28.725664 19.808111
80 19.428013 4.4585047
43.933365 6.2562461 -34.31012
0 23.99679 15.615063
0 10.650852 -24.128925
0 -8.2243404 -11.081079
31.645374 -14.627092 31.659454
41.437523 -30.880386 16.214922
26.197392 -3.7200108 -34.745003
0 24.406563 -5.4209051
22.80714 10.289954 33.357414
0 -4.0901327 14.760885
7.6647139 30.393536 17.180532
1.9695473 26.734947 -22.408495
57.404381 22.488987 -26.664429
80 -18.546936 -25.689888
0 -8.3989868 16.267416
64.923592 33.63237 -9.4760685
5.0999308 33.387451 10.074146
80 -20.522141 24.308287
80 -0.57063437 -12.014099
44.229946 -2.9230094 34.751209
59.573524 27.852917 -21.138237
14.630694 30.443766 -17.070442
3.4072018 -34.748867 -3.6840439
0 11.51233 12.051026
0.42664051 20.613928 -28.178436
35.047943 22.958267 -26.285513
0 6.2412262 9.4624414
80 24.5466 10.201178
0 -12.789729 17.897278
78.048523 26.359564 23.00729
80 24.371572 -16.206234
58.888161 17.330362 -30.26524
6.8352032 -34.783585 -2.8667173
80 19.553757 26.756641
80 -1.0270798 -33.462177
66.079262 -34.57806 -5.0880499
0 4.8465099 -28.898708
32.347263 -27.213091 -21.865221
80 27.850344 -10.227597
44.766609 -25.925648 -23.328039
20.033398 -34.907494 0.050124675
80 -3.2841806 -9.1401472
46.354286 29.996454 17.968098
20.93301 -32.920452 11.599067
60.091465 -33.311008 -10.634102
13.258357 22.721512 26.527954
10.58229 7.5624495 34.0676
60.994205 22.396793 26.839167
66.442017 -32.591244 -12.425303
46.894859 -27.895346 20.930779
38.878822 34.777851 2.9739511
80 2.479353 30.773338
5.8013201 30.713341 -16.632627
11.22807 34.657795 3.9114718
39.911842 -30.407288 17.15325
47.226841 31.647303 14.693833
31.323023 -29.289429 -18.945208
24.811817 22.267336 -26.843403
57.619553 -24.909386 -24.482737
58.77087 -29.527267 -18.558933
60.932114 34.235298 -6.6784706
0 12.930004 -23.23653
53.788605 -12.452389 -32.586979
60.001106 14.992552 31.494253
0 -27.429644 16.262243
51.90255 -6.5678072 -34.256699
80 20.156887 25.640991
75.143089 18.651567 29.486082
20.646801 -27.186787 -21.895107
80 4.2609673 23.219902
80 -12.884556 -21.15416
80 -5.2828188 24.660145
10.639024 32.488876 13.008308
37.704903 6.6626081 34.301903
77.368637 -34.238811 7.1834044
76.875992 -18.863462 29.342869
80 14.355806 -10.816349
50.541901 3.5697935 34.696163
20.993681 -14.634423 31.656139
61.459389 -34.229568 -6.7050648
48.916428 14.615245 31.664806
7.7368307 -26.44302 -22.740189
35.862221 11.629986 33.008495
22.257948 -25.580238 23.788082
61.190849 -33.73912 -8.9807625
11.940556 -33.174828 10.768448
24.70129 -9.5042591 33.561989
26.544098 34.006428 -7.740438
57.767845 -21.284218 -27.637213
13.973851 33.435665 9.9167175
43.632343 -14.574625 31.683168
8.1484823 5.7543602 34.510231
56.27412 5.3272095 -34.469421
80 -24.274061 16.187075
51.99921 -5.8598666 34.501251
61.702713 -34.876755 -0.67349774
67.305931 29.110956 19.287163
0 -13.212776 -30.44747
0 -17.619152 1.6239147
7.8646612 19.122061 -29.264338
10.229297 -31.841457 -14.29122
66.260498 25.558004 -23.745762
47.540691 -26.457226 22.875244
74.860039 34.958118 1.5662345
27.424217 31.415028 15.154523
30.989956 6.4914918 34.346458
1.0733557 -26.424101 22.920033
67.032684 -19.729839 28.757298
0 7.3421545 -17.761822
80 17.529356 -16.717472
13.949556 12.746204 32.509666
41.585678 -3.7043519 34.684715
15.371985 34.447975 5.5500317
42.069435 0.8113212 -34.873913
47.41264 17.582001 30.208984
74.098068 -32.727283 12.229832
2.0602417 -28.029573 20.749289
3.5162735 29.587807 18.64242
12.029576 30.94664 16.083509
26.835648 -9.8242111 33.478683
80 -6.3484325 -24.989332
0 -23.975563 2.2163286
11.029329 21.053551 -27.823463
77.056946 -34.646908 3.9964876
0 -20.630518 -0.48784924
21.960682 -27.652512 21.259109
54.05423 34.652256 -4.7437935
27.914505 0.36793262 -34.873909
80 -13.010647 18.232973
80 22.988773 -22.734398
2.6336908 6.5875726 -34.253307
47.979626 -0.98393005 -34.873913
44.031487 9.0472717 -33.790081
40.948574 15.448687 -31.31641
42.78614 -25.878826 23.501911
71.078812 34.894466 -0.25651538
12.51658 -32.627235 -12.33573
67.699249 3.7338443 -34.74263
43.709343 -32.495926 -12.662505
66.161911 3.8868172 34.669182
45.421417 19.5173 -29.043543
76.149277 -32.059124 13.87704
21.696621 -34.251884 7.0813088
58.785728 -7.2065449 -34.147179
80 -6.836143 -9.2488441
8.3526707 -10.665168 -33.218441
66.214607 -6.0942845 34.449883
80 22.352106 -21.26458
0 6.0011129 -15.252913
13.081975 -20.78005 28.047478
68.194199 32.05825 -13.751709
52.500732 3.5778413 -34.769379
72.390854 22.32457 -26.797188
0 -23.52153 -6.6666775
65.770164 34.661606 -4.7004051
31.347088 31.677086 14.634762
46.635105 -32.767673 -11.986235
77.369598 14.196918 -31.970598
0 -6.0940056 16.391342
0.096116066 -31.513865 14.958489
2.7714157 26.969112 -22.142431
80 15.267838 7.8574066
66.103477 -33.86422 8.5173397
69.357651 -32.597172 12.654687
55.143513 -25.632713 23.737789
71.420334 -3.7978997 34.67675
62.731453 34.223045 -6.7353373
80 4.4537368 32.717361
32.951313 14.630333 31.657986
20.238865 -30.372074 17.223097
29.005127 3.7176104 -34.745415
64.194153 -3.7487507 34.680935
80 -16.736164 -11.587127
0 12.293766 -10.955573
7.06141 33.302849 -10.654404
11.937137 30.896456 16.183048
79.232315 32.120457 -13.596905
38.181259 32.901897 11.659654
80 -0.47558022 29.815033
59.241276 34.574852 4.5592279
55.134937 32.237862 -13.304724
64.516113 20.50124 -28.269424
80 -20.044582 -19.475544
34.699776 34.033146 -7.6164799
63.839481 -30.862165 -16.390919
55.958336 34.612373 4.2661829
0 27.561546 -10.041502
15.495601 30.491978 -16.992144
24.180317 12.384834 -32.610844
80 -6.4703469 17.67568
67.440704 28.489456 20.127487
20.750736 34.773964 -3.093226
18.162731 13.477695 -32.224712
0 -2.1545796 -18.151873
47.126766 34.733887 -4.0366836
0 11.904563 5.2624526
23.915932 4.3393426 34.630669
0 -6.272758 4.548543
51.948647 33.012951 -11.375847
80 0.61204708 30.273781
80 22.032431 -21.061066
69.431587 -6.4031639 -34.284931
33.990723 -11.859333 -32.796516
35.554337 33.969234 8.1744251
69.308586 -29.286192 19.050228
70.540108 32.332298 -13.069712
48.042049 -33.560104 9.5103855
25.265652 -31.343536 15.296314
0 5.6018801 8.8941011
35.578201 19.63611 28.820648
80 24.132072 20.020447
0 21.966827 11.838826
77.210953 33.966988 8.1817703
5.7411337 33.877399 -8.3391504
0 1.6592145 19.1973
80 13.813874 8.5837669
64.71817 17.373016 -30.241413
0 2.2638359 5.2631035
80 -29.188793 12.882744
12.585411 -16.518024 30.804695
59.881138 -2.6816602 -34.873913
71.918602 15.502356 -31.286427
7.8647137 34.297249 6.7270389
80 22.51099 -14.509169
0 12.541018 26.598629
64.539795 5.456706 -34.447216
61.004105 -26.413738 22.934044
28.686596 28.763519 -19.799337
0.97065449 6.6734905 -34.238575
31.376503 9.6752787 33.51746
0 0.1289134 27.846064
23.508978 -15.097818 31.446671
23.450848 23.371483 -25.951866
0 10.056646 -16.012089
57.327087 -26.240099 23.155659
40.938171 14.315861 -31.928572
80 -3.5911293 -2.3520184
60.232105 -34.883999 -0.50289255
45.278759 21.129206 -27.762377
30.534576 1.5004576 -34.873913
49.141621 18.939816 -29.366146
0 -11.464605 12.885224
0 -14.636979 -11.012915
72.158417 2.6654973 -34.873913
15.67606 23.211388 26.058439
80 13.076589 -5.4076071
33.744587 7.7826366 -34.048393
36.805531 -31.995384 14.003452
0 -4.1816196 29.604046
74.019661 29.819338 18.319384
42.30875 4.4166903 -34.625546
72.820999 -26.376133 -22.816189
16.269598 -27.128365 21.9678
38.546345 24.593132 -24.842072
80 12.43292 -28.962746
80 20.328323 -0.53048992
58.011894 15.926612 -31.049423
80 -17.162071 18.084316
31.117493 25.863338 -23.398838
44.004501 -16.013437 31.032784
80 -1.2208939 -3.1085186
45.94632 -20.862263 -27.977917
0 21.746622 -11.792397
16.611404 27.967276 -21.008301
62.025505 13.718382 -32.139675
10.796022 30.117546 17.727922
54.129013 -29.421452 18.867348
80 5.6414447 17.634655
0 -26.487862 17.032757
42.466599 -34.838821 -1.566457
12.127423 -25.580603 -23.720087
80 10.64045 26.885132
80 -22.139574 1.3768654
35.890144 34.782925 -2.8823187
0 0.87809658 12.319585
1.9537258 -27.595535 -21.430679
77.258987 18.978624 -29.344467
21.969296 -10.703342 -33.204952
80 21.896605 23.889038
2.3781919 -32.118496 -13.601783
40.242844 -29.604805 18.619434
74.703613 -34.883438 -0.51614928
69.811493 27.466311 21.51087
29.940491 12.095587 32.803764
52.80032 17.069248 30.555527
16.564831 13.999532 31.943125
65.629059 32.678654 12.388622
0 -10.207206 9.0258102
60.410648 32.584885 12.69481
26.776024 -26.366854 -22.826733
4.2215967 -21.952383 27.255121
65.466492 29.953583 18.053127
19.636307 31.007509 -16.154865
27.101454 20.377764 -28.369125
38.243156 31.166496 -15.896656
1.8918848 -32.382755 -12.944139
1.5577173 -29.309101 19.019257
73.302925 -33.488609 -10.143123
1.614089 -9.6412039 33.526333
54.201466 34.131378 7.6449804
80 1.4657574 1.9152431
21.95426 32.049976 -13.772291
0 17.944805 8.4705982
29.944448 8.2008848 -33.976677
51.892288 -31.463697 -15.231314
74.570328 20.115271 28.496794
58.893703 -0.36126065 34.969254
60.164982 0.80168271 -34.873913
40.436401 15.621389 31.210003
44.07534 -32.634991 12.531195
14.451165 -34.075806 -7.4185205
0 9.5911427 15.466719
68.91095 22.82222 -26.395363
80 30.486027 0.62220883
64.615395 -27.277225 -21.792347
0.050587654 -15.718744 31.165995
61.34087 -26.882347 22.300442
80 4.3449631 -21.774254
2.8789425 -0.8175382 34.930416
68.490227 -25.98111 -23.26502
42.999172 -29.17284 -19.13456
77.39151 5.4466972 -34.448929
80 4.1470118 -33.445881
3.7751627 -7.4398451 -34.107174
58.522194 -28.465612 20.159727
10.811839 4.5297356 34.61446
0 15.247835 15.34708
55.19178 3.8671067 -34.71978
3.5019207 1.2134044 34.896721
11.648746 7.9771457 -34.015041
0 9.0737667 24.757383
0 21.359409 -16.369259
66.472076 -19.957079 28.603714
80 -0.94214821 15.405519
45.811028 20.844336 28.00403
37.551384 -3.2193112 -34.830856
21.843945 25.690918 23.682007
80 7.4211512 -17.80386
0 -9.2860003 12.938024
31.097698 -27.933334 20.879414
51.599327 -29.020758 -19.381554
80 -31.699341 -10.931939
0 -22.908947 -5.2160826
76.674515 10.260389 33.365112
74.706398 -32.963707 11.457831
0 -8.7897129 -26.23786
80 9.1013947 10.552986
59.74057 -32.62785 -12.334206
61.456764 17.084869 30.544987
80 12.099516 1.5498409
1.0279226 -25.711344 23.662428
6.924963 15.423997 31.299229
80 -10.072533 19.505432
78.247635 -33.426514 -10.346649
2.7262354 9.1314182 -33.760349
73.103683 34.125439 -7.1882429
80 21.961998 0.86724138
56.995605 24.040318 25.263977
67.100311 -28.146404 -20.801598
51.809708 -34.154869 -7.0516734
64.689323 3.8810968 -34.717381
51.993389 -30.913429 16.14938
4.6724606 28.560822 -20.128544
62.199711 -2.4042423 -34.873917
80 5.7244997 31.425842
0 -13.425409 26.467999
80 2.6371288 11.946641
7.7444792 8.674346 33.778088
76.484421 -34.819881 -2.0123372
30.785723 26.975975 -22.134636
78.926323 -31.396553 -15.398407
63.160721 -31.05061 15.877299
28.820114 -24.870403 -24.527031
35.895943 -3.2822826 34.720634
80 4.9732971 -2.3778954
9.1165209 13.039267 -32.379623
16.35405 32.75465 12.140469
38.572372 4.2914143 34.634743
53.599438 29.296408 -18.933874
5.9006262 -18.554409 -29.581446
72.358383 11.766234 -32.829411
25.925735 -10.749426 33.237778
1.5379572 -19.599117 -28.997837
0 -10.834539 15.162928
80 3.94098 -11.25152
39.864803 34.867546 -0.89019167
22.658409 32.790474 12.023491
63.959808 26.999643 22.141846
52.640438 34.937561 1.7267609
40.29707 34.450626 -5.6793547
14.092941 -13.110643 -32.354401
80 7.8762965 29.503277
10.992193 -31.69665 14.595961
52.798302 11.197248 -33.030445
75.285919 32.857086 -11.763725
39.492531 27.990025 20.802765
33.113636 28.292385 20.393942
43.979378 -34.464191 5.4233823
37.198864 33.658859 9.1879129
35.176884 -2.6528337 -34.873913
28.267418 33.475655 9.7861404
51.127102 -11.803519 -32.816238
0 -10.456013 -11.108204
30.918301 -12.070637 32.815041
0 -33.597519 4.9062805
24.864721 -27.515064 21.44495
3.3511066 21.737545 -27.271179
0 3.2168632 34.633442
6.4032459 -27.173925 21.906202
78.262688 12.804582 32.483276
52.510227 24.435768 -25.02087
48.274284 -21.493643 -27.468115
0 -8.9810467 19.767666
0 12.256701 -24.265129
72.970993 26.447577 -22.735012
30.376406 -34.754147 -3.5597048
80 18.832031 12.662602
42.725086 11.11753 33.14193
3.2276869 10.514237 33.299015
52.393246 5.4725618 34.534214
14.601598 -34.783566 -2.8671961
55.749702 33.797962 -8.7077169
76.828186 -12.925616 -32.419777
49.246803 23.600063 -25.7673
0 -0.18357372 -23.643223
46.981544 -34.818832 -2.0370402
53.577805 -33.847675 8.5713596
1.4597511 34.772972 3.0120614
78.421692 -0.908503 34.922672
0 18.015102 26.174
69.638809 -34.643005 4.0270033
0 21.351334 -12.682438
33.638447 29.037642 -19.354137
44.500183 -34.41988 5.7693973
80 16.978779 30.22044
74.091339 -16.487724 -30.735966
80 -6.0680966 2.5728016
80 1.7559085 10.859612
21.962767 12.490007 -32.573685
29.170853 -21.306866 27.691414
43.822334 -27.737383 -21.269508
80 13.630608 -27.101742
54.374104 -14.011293 -32.036179
31.072926 24.683027 -24.739929
0 15.295979 -9.6197643
19.863552 -34.195396 7.4359369
48.078224 -30.280666 17.404392
47.714478 -4.5688086 -34.599464
54.520546 5.7905436 -34.389973
37.311661 -6.1751375 34.428829
23.935919 34.842728 -1.4745188
61.898006 -29.893681 -17.963842
79.910889 -14.194428 -31.971478
77.991974 -24.298399 25.016624
47.463852 -3.002737 -34.867992
79.360741 -26.967766 22.18495
80 32.235653 -3.1132081
27.084328 -29.698355 -18.281069
73.021935 -21.197786 -27.707003
0 -10.020306 5.6884513
80 25.194151 -21.844154
80 3.4882298 -25.042244
31.00758 -29.475128 -18.643614
80 -28.975178 19.301332
15.916805 17.373116 -30.241358
75.33815 -23.565748 25.718817
2.810359 33.248074 -10.790718
78.439003 -20.64447 -28.153774
7.0871639 34.751419 -3.6239109
61.450211 -34.778065 -2.9966488
0 -14.475313 -17.719101
1.2226629 -1.7483999 -34.873913
73.602951 -31.932678 -14.064202
74.805374 34.797886 2.8175297
80 23.297535 -17.612827
0 -8.4754353 -13.943374
62.316029 -26.234194 -22.977463
80 -31.635759 13.839976
0 2.5358849 -13.51366
75.049309 -21.297474 -27.626511
80 0.091221333 28.00301
0 15.475017 9.0359211
38.961273 2.3795583 -34.873913
15.061278 -32.446133 -12.786424
26.162724 34.385632 -5.9809289
77.86615 16.415543 30.851023
78.215767 7.1444654 -34.157822
80 -30.600708 -8.9793949
41.439224 24.828754 -24.57435
80 -2.8122005 15.163139
37.941498 12.48364 -32.575935
76.966057 -15.495685 -31.290154
80 30.832836 -11.068809
0 -18.498449 -14.958298
8.6232281 -32.681446 12.379499
3.2055092 32.087013 13.821726
58.379509 34.938267 0.77458012
46.191833 4.5552931 -34.601776
20.181137 14.169937 -31.980129
80 1.2053101 34.335537
67.342575 -22.073917 -26.999577
36.435833 33.866821 8.5088282
59.233402 -26.776335 22.443779
80 5.5188599 -4.1183424
49.707375 16.626511 -30.658436
25.157928 -14.766299 31.596525
31.276602 -22.387478 26.848099
45.739738 -34.424129 -5.8023024
0 -10.756675 13.42673
78.722763 23.660709 -25.71833
52.779522 -17.427044 -30.211229
23.062424 -31.524733 14.936934
80 -19.178885 -12.089714
48.948204 -34.389755 6.0046625
75.341354 -26.776674 -22.361084
64.208405 -28.924921 -19.537207
0 -22.761337 -6.9781928
47.122017 34.639023 4.0580759
32.545174 30.991112 -16.181498
68.572838 14.349134 -31.916815
0 -20.738787 -27.990887
68.124298 12.279175 -32.648178
63.332478 13.886446 -32.080292
19.352871 -29.721151 18.462126
64.117523 10.185351 33.384651
80 13.252467 19.166229
0 -25.391809 3.161783
22.223972 -12.528542 -32.560074
80 19.455511 12.438053
44.186935 -34.810814 -2.2257745
44.450378 -24.578531 -24.85866
0 13.509418 26.027531
40.238655 -34.008324 8.046793
73.389709 34.145336 -7.0959034
18.202782 -9.7695446 -33.534882
0 -29.434025 11.681475
80 25.238216 -9.4159651
37.689568 24.783344 24.551842
69.713097 31.087627 15.803877
67.607719 30.24465 -17.393829
62.060379 34.728149 3.3620722
36.715225 29.406397 -18.755238
25.504036 -30.260056 -17.368811
55.755848 17.721714 30.114553
63.348785 8.1616039 33.911591
0.72373867 20.580019 28.182678
79.999992 34.393654 -4.2091784
19.516924 -12.777753 32.495407
80 26.967064 -5.8584442
80 -24.107906 2.2303562
0 30.154861 11.951162
58.065521 -29.405968 -18.755936
24.926399 26.003523 -23.239555
4.1993809 33.11993 -11.109618
0 9.0307512 -33.711529
38.981743 -31.649117 14.690238
80 26.548075 -13.623543
61.174538 25.832684 -23.433662
68.250015 18.473417 29.606491
22.084272 -27.514904 -21.522293
79.421562 -29.380974 18.922077
71.714272 -19.766052 28.732821
2.2389078 24.360785 24.956837
0 24.793793 -18.869486
10.203254 -31.134523 -15.94858
76.601204 -32.881248 -11.703601
66.261101 -10.541519 33.291916
0 1.7402272 15.63106
0 -9.8189478 25.286337
63.157948 9.4880075 -33.634357
57.857681 -22.736874 26.513226
80 19.975052 24.189173
80 7.7557702 6.82125
80 -19.268553 10.393962
59.339287 31.090366 15.79845
0 -28.384537 -15.299637
77.000885 24.887867 24.451666
45.016384 10.880284 33.203701
13.994246 21.39341 -27.549047
12.88341 -31.576502 14.834255
58.280022 6.1027498 34.447678
42.75581 -34.747879 -3.7072692
80 -3.2534204 -19.98885
80 -25.303822 -8.069006
62.472317 -4.1225419 34.64912
28.141846 -34.057095 -7.5053415
6.860342 16.35573 30.878059
45.466339 24.711874 24.620344
11.871438 -22.687624 26.560432
21.311687 10.730225 -33.195457
28.6577 21.897438 27.292259
34.050449 -31.720453 -14.592348
20.960201 1.9555295 -34.873913
13.505004 -17.27664 30.415375
25.135508 -34.884937 2.1376996
31.446543 -9.3158951 -33.695168
80 8.8767004 -10.375245
80 -15.854136 -17.808218
45.872616 13.352657 -32.268894
66.980438 34.824776 -1.8971555
0 -18.002293 0.058862686
8.3760834 -31.604549 -14.880786
50.365288 11.960284 -32.760849
44.386456 -8.3497801 33.862598
0 -24.211229 16.991982
5.0011873 -33.090511 11.043766
48.977821 13.153734 32.325447
0 -12.007998 -22.415016
0 25.099855 -19.55513
74.173164 -34.589619 -5.0344181
50.648464 21.855492 27.32061
41.721027 -18.151402 -29.806578
76.363876 -34.539474 -5.2670841
70.369797 -13.84724 32.011967
35.973019 0.85912263 -34.873913
0 -18.775887 17.18833
64.784233 -7.6327639 -34.074093
59.236382 33.214951 10.637426
80 6.0316701 -6.9692559
34.194126 -33.231522 10.583317
75.196411 23.467073 -25.87468
19.757299 34.455379 5.4921684
0 -28.678965 -14.594927
51.986702 33.861717 -8.411911
18.802265 34.804352 -2.3779271
80 -18.995995 13.339602
78.677689 32.035107 13.924668
80 12.773727 -25.040371
47.747688 27.654926 -21.363197
13.414364 -1.837286 34.84362
60.025375 -29.000595 -19.414305
80 4.2829981 -0.25795364
6.8958235 19.6567 28.806732
30.555944 19.778248 -28.853199
49.049568 5.4010286 -34.45676
58.618576 -33.976486 -7.8793721
55.878513 33.84642 -8.4828739
28.427013 -29.378506 18.925411
21.182018 -2.0703952 34.823784
80 -22.47263 -7.2378454
47.184227 34.004288 -7.7503672
80 -18.76545 -10.902811
0 10.625885 -22.781479
24.071875 -34.601646 4.349978
69.920715 7.5763898 34.063969
21.252304 31.607363 -14.873779
41.300247 22.036007 -27.030188
30.620876 34.796246 -2.56866
26.621372 24.822302 -24.581684
32.189579 30.089531 17.783489
77.176041 15.413977 -31.335798
68.931046 -32.002781 13.988782
80 -13.379648 -20.625622
11.37001 -27.248795 -21.824654
80 17.2369 29.520042
80 22.246601 -0.6232357
18.502453 34.951118 1.6208899
19.22945 -17.091164 -30.398865
7.8096819 18.242659 29.762457
80 -22.830742 17.790829
80 4.6394086 -30.265059
19.633188 -25.897772 23.483749
32.336327 -34.479958 -5.5432448
0 9.1545782 25.587488
8.2762861 31.265726 15.450642
13.04974 21.710634 27.418516
0 -27.593498 -10.809927
5.6489563 -12.71716 -32.493427
75.878868 29.2201 -19.057806
80 -16.953323 -16.360233
80 3.9134483 -15.750566
13.902197 -32.728683 -12.083275
33.05175 19.166506 29.138042
67.939499 -14.43206 -31.884329
29.301407 -33.067394 -11.240356
0 -6.0888453 -22.581812
40.270866 -22.784292 -26.425987
11.150761 -34.486427 5.2497158
71.049553 34.727592 -4.1847782
2.6500273 31.155102 -15.915158
30.742798 31.606754 14.774252
0 -17.443972 -23.879868
41.98782 -15.622992 -31.219034
80 0.84340382 -3.4790297
67.837555 -34.898972 -0.15047324
0 10.500372 9.7523937
41.271637 -30.094826 17.772987
57.042763 7.4924574 34.085827
52.210861 -2.0977936 -34.873917
47.824963 33.836159 8.6089592
0 -3.0376239 4.413269
56.658951 -11.21157 -33.025387
80 31.539276 8.9826136
80 28.324898 5.2882714
34.540066 33.364994 10.147482
26.493237 -12.536329 32.604534
41.089203 20.670019 -28.133146
0.64611912 34.871586 -0.79508227
42.517349 2.8269861 34.759384
28.756876 21.242432 27.734966
61.55542 -23.368996 -25.953873
0 1.0791759 -18.319811
0 1.7824607 11.987772
80 -7.970294 -18.386425
56.011055 -11.865644 -32.794289
16.027315 -17.551191 30.229809
33.321533 15.863205 -31.084845
51.99472 15.123396 31.435108
0 18.369688 12.128798
52.100742 -26.999701 -22.107677
0 2.721905 -30.365046
47.938683 -34.536335 4.8600054
0 19.386669 5.9353442
80 -27.500862 21.057255
66.581131 7.7283082 -34.057709
53.895523 -22.150736 27.074993
80 -2.9964373 -20.353004
39.228497 3.4529824 -34.790791
55.101376 -31.924526 -14.084488
60.756203 -28.385927 20.267469
19.096098 -21.729622 27.405682
79.713364 30.433468 17.101332
59.661716 32.797607 12.000196
39.463402 0.67747754 -34.873913
80 28.417631 19.243341
73.941818 -30.165945 17.631929
15.222154 33.130245 10.914025
3.2829762 -3.6452167 -34.757832
75.093384 -18.805004 29.382378
1.7564249 28.5005 -20.226511
51.934959 30.334532 17.297554
36.3731 -26.571632 22.720556
63.04567 14.703395 31.62496
24.956274 -29.060921 -19.31633
80 29.327477 -4.9516568
54.566475 -33.307201 10.336205
55.063126 30.3123 -17.283962
74.118736 -4.0654669 -34.685768
2.797122 10.451309 -33.294003
69.79319 -29.663651 -18.337437
18.720045 -31.642448 14.703461
80 19.649343 12.093358
80 15.717932 15.147695
24.013186 3.9566329 -34.70443
20.153671 -28.674097 19.877838
80 -2.7283192 21.720459
80 -1.8792486 -23.736013
51.917233 -9.7385378 33.500992
8.7157583 -33.200882 10.683361
6.5974426 -27.013294 -22.092236
22.973003 -27.947811 20.85984
37.326851 -21.791119 -27.227921
79.392654 33.93531 -8.0704288
80 21.269472 23.314764
67.229584 -17.961906 -29.912439
44.338589 -33.981194 8.1353817
57.042809 -25.08976 24.258169
45.51918 -28.638264 19.926289
80 7.803288 28.823015
24.650545 -0.31310225 -34.873913
16.456181 16.873732 30.643906
80 3.439445 -32.8367
0 -0.094829559 -1.2445383
59.910339 -34.945114 1.6677686
71.98748 21.33424 27.672913
0 31.803802 -10.242918
59.124126 -1.1490928 -34.873913
14.188726 -34.334976 6.4324245
80 -17.435101 21.054211
75.992226 18.23653 29.7666
9.4491148 -13.21121 32.299473
23.631634 21.391499 -27.550591
51.14785 31.746347 -14.527906
62.578049 0.44604963 -34.873913
0 28.159849 -7.4154167
0 0.25893402 15.699854
15.24272 6.6309524 -34.245872
54.006451 25.022707 24.32243
0 -2.6521292 -23.980391
15.657085 -27.835829 -21.157652
74.496422 13.371329 32.227093
63.248749 -19.420055 -29.097866
12.783772 28.165155 -20.771145
80 10.439442 -29.607477
46.313461 28.355347 20.308815
0 -13.602306 1.9428287
80 -11.489025 -26.648031
1.5418053 25.886578 -23.372431
56.609993 -32.770531 12.08861
80 7.8859253 17.245068
7.6691961 33.963585 8.1928835
9.7379208 26.053986 -23.18222
47.886902 20.381556 -28.366062
0 8.2857456 -4.4781218
48.94125 27.300303 21.735329
0 5.8888645 -22.321581
0 28.664373 19.704212
0.004992485 -24.595869 -24.838961
63.636314 -0.074989408 34.993618
0 17.273943 11.293049
0 24.039265 -15.432158
79.04187 -1.2411971 -34.873913
15.031638 22.142908 -26.943869
42.36591 31.130585 15.718682
31.212473 33.044308 -11.297811
28.175732 34.812492 -2.1862278
80 16.616104 0.34101295
13.788657 32.9916 11.366748
7.7244759 -22.635504 26.610382
22.105179 24.568447 24.757805
11.003251 1.1915047 -34.873913
52.843079 12.13783 32.784668
2.787385 31.830931 14.32962
41.212143 -13.153733 32.325455
0 -18.922043 -4.2867126
46.84613 -26.036369 -23.202236
24.530998 -11.627115 33.009247
80 -1.5959542 16.781065
76.391327 31.139847 -15.939935
28.32674 -13.575308 32.134888
1.1085892 -23.844238 25.451902
3.4359217 31.556103 14.874714
8.2836628 -3.8599555 34.671471
42.714798 -33.090637 -11.182511
44.016068 27.045717 -22.055393
47.17384 19.121738 29.168304
27.592487 -31.700062 -14.643095
78.066963 -34.097214 -7.3191786
55.241318 -1.68688 34.856426
28.308826 -30.2924 17.381119
50.408432 -24.845329 -24.555519
61.004356 8.1566277 33.912888
80 23.752079 -7.6210761
0 -10.456635 28.670368
74.751038 -27.436672 21.550945
63.970028 -13.421808 32.204273
77.804306 30.964111 16.048859
32.065434 -2.3579402 -34.873913
55.629086 -26.504055 -22.670837
0 -5.6780052 6.035861
5.8079624 4.2531905 34.638
0 6.6951628 -7.5789309
4.0280676 -33.111088 -11.131619
22.607737 -1.2192874 -34.873913
34.217957 12.113214 -32.706814
7.2809792 32.58659 12.689242
0 31.004398 -6.6597557
0 18.86731 -2.2833209
69.283386 -30.431946 17.104343
12.818112 -31.640551 14.707223
0 5.5485253 29.744879
74.104156 29.51265 18.744038
0 2.0951459 -33.790623
24.760639 34.749435 3.1958525
80 -19.381033 15.110008
46.873569 -34.897064 2.0430222
20.752354 34.586132 4.4711161
66.890991 -3.1299186 34.733601
0 -14.703668 13.89385
80 34.218693 -2.5779791
32.766037 -0.97403979 -34.873913
80 -22.117476 2.2010412
46.127632 -8.4314365 -33.937141
80 9.2638407 -0.84687996
0 2.8133221 -9.3302231
34.291538 -33.141544 -11.055831
59.43615 -34.871834 2.2400298
0 -26.282669 -9.5121841
31.692356 -5.3465428 -34.466106
17.368317 -25.901209 -23.355806
0 -16.004427 -4.8816175
0 29.188023 -9.0636187
67.831223 -8.0282116 33.946327
1.6694307 -32.126358 13.743684
65.789116 27.014494 22.121769
0 31.195187 11.774227
55.860901 3.6307702 -34.760307
60.398178 -22.869312 -26.357342
76.944534 -33.452087 -10.283012
53.583183 -5.1626844 34.560589
53.829353 -34.952957 1.1203631
43.372311 28.803425 19.702972
26.162434 30.361092 17.244883
80 -18.58692 3.6781263
0 17.224955 11.779419
0 -20.947083 14.911866
77.915085 24.851656 24.486372
0 -11.965309 -19.714539
73.706589 10.979796 33.177792
20.156929 -33.133251 -11.076466
59.090382 -20.612925 -28.179245
7.8731441 30.363564 -17.200703
65.837624 31.692711 -14.661386
0 13.379644 1.4147396
72.448746 29.398478 -18.768097
36.955719 -33.699371 -9.1651764
54.049164 -34.528046 -5.320116
31.442017 -19.02597 29.233028
0 9.9296665 19.764868
23.695415 8.9165096 33.715031
2.141819 33.630348 -9.4854422
19.767967 -26.582869 -22.581289
68.615967 -29.123545 19.270144
78.856529 29.56093 18.678759
68.79258 -33.491482 -10.129797
0 15.937883 13.955538
23.106138 4.6174731 34.606995
74.465469 -23.828526 25.466961
22.387291 22.870405 -26.356457
10.529275 28.564392 -20.122742
47.371029 -28.305122 -20.543821
78.215767 34.300072 6.7050033
13.539019 32.765804 -11.990892
67.022552 6.5942612 34.319695
28.098822 -34.9655 1.5085728
62.829865 -33.119698 -11.110193
63.144707 -34.940987 0.83861089
14.016743 17.296993 -30.28388
16.373224 -16.932356 -30.487581
80 11.718601 -25.1325
24.002409 21.72953 27.405741
25.414658 18.195473 -29.781961
24.854664 26.34111 23.032244
64.885307 -33.022114 -11.353045
0.8518219 19.552572 -29.02384
7.688632 18.052359 -29.86191
55.268967 34.750443 -3.6469254
80 24.666636 -4.4507689
49.485161 -4.3406048 34.630562
80 -21.604603 -11.337834
0 -29.559584 -13.930946
57.706783 -3.155571 34.731419
53.49947 -33.78167 8.78689
80 19.346506 -13.508477
69.06311 34.780987 -2.9278808
49.70726 29.970556 18.019459
0 21.767406 0.51674271
59.828892 -34.74905 -3.6797357
69.562355 7.1007519 -34.165314
39.837776 14.137205 -31.991695
46.547592 -31.468834 -15.218529
0 7.3770361 -13.311448
26.511246 34.946796 1.6546376
51.233929 34.848782 -1.3319051
0 1.1438608 -12.354246
80 -16.261431 13.932772
72.180122 -11.69877 32.983139
79.392776 -13.413039 32.208237
41.49403 3.0231051 -34.864502
70.71994 0.18436825 -34.873913
0 16.710997 -17.377754
4.2501116 -10.697239 -33.207111
42.348362 34.751114 -3.6311731
7.1017838 -32.553539 12.797162
17.62793 -34.220257 -6.7482696
60.027161 33.904343 8.3863192
16.339149 -34.836609 2.5151157
64.264389 6.767374 34.27462
7.0547676 34.845058 -1.4196377
58.745659 18.46347 29.613214
0 9.8725328 -3.3471451
0 -19.085621 28.134354
73.40995 21.587618 27.501659
30.854738 34.779079 2.9643626
23.573193 6.5172892 -34.265358
3.503886 -19.562489 -29.018299
10.564971 -14.491367 -31.851198
55.463558 18.018566 -29.880787
0 -0.60095787 13.249131
64.633881 21.424923 -27.523602
39.166222 -1.375473 34.882931
9.2327261 11.919385 -32.775299
36.551113 34.907623 0.053141594
0 -2.8217525 9.5285635
79.10556 -34.074627 7.8302851
38.119919 -24.062408 25.242802
5.3643084 33.092697 11.036629
8.2669449 -21.589111 27.500652
0 -24.301384 -9.7096796
0 -11.55641 8.2696838
69.286072 14.609515 31.667397
53.126457 -32.559368 -12.504623
56.08802 -15.104746 -31.508545
29.470848 -34.727692 -4.1824179
29.32889 -29.990574 17.979761
65.159515 0.43316275 -34.873913
14.003329 -1.3907716 -34.873913
3.063221 22.231451 -26.872379
0 3.974833 -14.876374
80 2.5456738 26.630234
5.8723831 -30.642338 -16.747946
80 -0.80003262 -17.486523
80 -32.126991 4.5860791
18.663258 33.482395 -10.17197
27.300858 -26.318939 -22.881174
0 31.779383 -9.703042
23.753563 16.220081 -30.885483
76.520355 -20.74678 28.069969
41.673668 -7.9960756 33.954693
33.287041 33.528503 -9.9580173
43.50885 -27.552311 -21.47979
5.3705454 -1.6060703 -34.873913
55.215958 30.35969 -17.206991
0 -6.3487816 -29.572706
79.245438 -34.773899 -3.0947022
46.887161 -34.881714 -0.55671549
31.597952 -34.21505 7.3689427
80 1.2830191 -30.697285
13.449287 28.019003 -20.949528
15.668564 -34.293663 -6.4076643
0 26.938278 9.5972366
76.496658 -31.07332 -16.047983
59.935417 25.252193 -24.093231
4.1310501 20.069408 -28.618103
3.5274553 0.28623459 -34.873913
65.306435 22.00676 27.212982
58.195358 -13.401534 32.21344
80 -2.3454866 13.527802
7.2607708 24.285282 -25.191856
0 3.9183879 29.431637
32.440376 -23.746336 25.545734
63.398911 23.687809 25.601826
39.442932 22.859741 26.39547
63.613605 30.705976 -16.644588
80 -15.385452 -29.862762
5.2614498 -19.737215 -28.886332
19.509506 -23.480543 25.800476
80 -16.606264 0.37938118
0 -5.864603 -5.0667768
7.4805498 13.469155 -32.227734
80 1.3675556 16.332907
65.978607 31.168304 15.643867
80 -26.221737 -22.01757
80 -26.57933 -0.66008592
6.4812946 9.4597378 -33.644344
56.190468 -28.553507 20.040882
37.092113 14.014866 -32.03492
57.316143 -29.526997 -18.559372
75.732422 14.854763 -31.648193
34.397781 29.700035 -18.278339
50.752819 33.804325 -8.6781864
8.8628483 29.407534 -18.753393
0 -4.5998068 34.580772
56.675121 11.364486 -32.971359
80 9.413044 6.0883255
8.5536718 15.430425 -31.326609
24.804615 30.123749 -17.590187
71.552643 34.198162 7.4268956
42.565521 -13.583237 -32.187424
2.298274 25.343861 24.014629
72.40094 20.288485 -28.441214
71.485275 30.272108 17.421366
80 28.90797 4.110682
80 -3.8867283 -18.090855
42.856426 12.019114 -32.740063
9.5965719 -16.200998 -30.896141
44.886444 -32.256794 -13.25762
0 10.714518 13.779161
42.387047 23.550688 25.733246
29.328857 14.796541 -31.680717
80 -29.069969 5.388669
80 20.223543 -10.545061
80 13.29931 15.574432
80 -1.3132715 -6.1002464
69.857544 -26.797703 22.41489
67.123161 -27.271742 -21.798578
0 -23.902679 -11.698343
0 0.69640923 -14.661192
0 0.31501722 15.893154
0 -3.3621297 -31.657682
80 32.706753 7.3631001
76.339233 34.616421 4.234601
80 13.167992 -20.170567
66.085632 26.094662 -23.136002
56.142464 19.078442 29.197567
60.431236 24.991859 24.351997
0 -28.143486 -5.5494938
80 -31.266386 -12.828252
7.34056 -1.4238155 -34.873913
73.532562 -33.797852 -8.7082396
35.760056 26.82066 22.383846
42.396751 -12.127151 -32.701889
49.982719 -28.755058 19.768372
80 21.713017 20.240974
80 30.852776 3.2127452
80 27.351345 -1.493993
80 21.164619 -11.473426
0 -17.964226 -28.029476
0 28.497881 5.3843651
0 0.29966497 11.214078
16.507711 -3.5477686 34.69804
80 8.7078934 11.516591
9.3417597 31.513958 -15.106233
37.035519 34.467808 -5.5996294
80 -7.8878083 -16.115189
21.07028 13.043118 -32.378262
32.117439 33.39785 -10.417986
63.012573 33.911453 -8.1811256
0 9.5338936 -12.562596
21.797256 16.010363 -31.002636
12.420692 -27.634031 21.2841
65.229401 -31.639574 14.70916
80 -1.2222013 13.380522
54.627922 -34.383579 -5.990447
74.197647 32.78223 12.050409
19.450191 -34.20504 7.4044256
30.101334 -20.914495 27.956612
38.080498 -8.0118484 -34.00909
7.8521442 12.600779 -32.534546
67.185959 19.89205 -28.761311
46.407921 -33.060547 -11.257402
57.119091 33.649517 -9.3965101
65.101929 -28.983934 -19.441362
46.766701 34.782024 -2.9034817
0 -26.892994 12.307466
45.863056 -24.934689 24.406792
0 13.862596 10.694378
0 4.4449472 -2.1419449
40.851593 -33.998508 8.0788441
80 22.240623 17.207802
76.280815 -28.428658 20.20969
80 -26.373497 8.6570635
18.645563 -10.618404 -33.234962
0 -6.6090546 -1.4255981
79.659866 30.699652 16.573387
13.387499 -34.698143 3.5963941
80 21.772888 8.0010633
26.717926 26.639889 -22.516504
80 11.40694 -7.4231882
0 23.039373 4.6544118
80 0.83537388 -21.107801
0 9.7338867 -28.01601
32.312325 -30.777996 16.417997
80 -19.675783 -6.0268335
0 -29.505814 17.432835
75.55941 -34.878429 -0.63406342
42.036446 8.2874289 -33.961838
0 -4.1397839 -17.644197
37.600822 -28.29961 -20.552776
80 8.2921133 -9.0991917
56.963882 -6.9545822 34.225876
0 28.093464 -7.6005282
41.364792 -32.917461 -11.613475
13.895655 30.989437 15.998621
32.806126 28.629267 -20.017376
80 20.847153 -16.745701
0 18.133408 5.6086798
9.9885798 -23.402653 -25.926697
80 19.549168 -1.6953497
80 10.376435 25.203493
80 7.4873333 -7.5792055
0 2.7559299 2.1671352
73.094421 26.920273 -22.197926
0 16.89069 24.923935
0 7.5417852 -6.2136722
80 25.176935 -16.579292
0 -22.525261 -2.7589211
80 -16.379963 -20.922979
80 6.5870738 18.249065
45.217804 -30.536385 16.897202
55.366119 9.7013893 -33.558968
0 -31.41218 -11.511473
7.5941801 22.403883 -26.733149
0 4.6682463 32.751812
79.839844 -25.910879 -23.34482
59.563881 5.5934958 34.523922
0 25.214157 1.1205926
11.933842 13.04882 32.372875
35.836788 -2.6233199 34.776722
76.587723 -18.2187 -29.768984
56.722824 -21.827917 27.339245
36.265366 28.092838 -20.865635
23.563452 -19.659565 28.804796
11.694527 14.423021 31.751698
50.873997 -34.67252 3.7965181
1.2155104 -12.561288 32.59325
9.4059372 33.829479 -8.5614738
20.99514 34.77449 -3.0807557
80 19.841953 26.662733
19.516102 31.866806 -14.22814
26.439867 34.250751 -6.6067691
71.032768 -34.348206 6.3291192
22.143965 31.005894 15.965988
57.411369 15.292839 31.358517
47.654869 -14.017568 31.934975
0 19.385366 24.610926
33.101105 32.311142 -13.122359
0 -7.0419021 -19.775377
16.759624 -23.263161 -26.039331
80 25.099037 -23.966618
23.857838 29.022619 19.406601
75.744865 -33.686821 -9.223424
2.0347643 -21.584478 27.503782
61.318623 -33.233082 10.578217
71.521408 -29.492729 -18.615025
80 -18.735886 12.784813
24.983593 -31.748737 -14.521963
80 11.932348 32.875168
47.868118 16.303589 -30.838831
21.506985 32.241787 13.514741
13.795385 24.459118 24.862589
80 -31.963211 8.9942856
11.28355 -17.605455 -30.111565
15.152192 -26.283169 -22.921818
67.953003 22.55224 26.690182
15.579395 29.562996 -18.500906
31.417942 -21.983654 -27.07246
9.1592646 32.761993 12.116496
28.790344 22.691681 26.556541
25.543671 -28.860775 -19.641384
58.884697 33.383781 -10.452992
73.278046 29.61129 -18.422472
32.088505 34.852062 -1.2547731
0.29184818 12.162037 -32.689564
13.454633 25.834169 23.544708
22.453587 -12.310757 32.706501
8.5065126 13.422835 -32.244099
61.920547 -34.476646 5.3260889
0 -7.2966523 -11.02783
22.221313 -11.205589 33.118999
80 -26.757113 -3.5386369
7.0644426 -20.89262 27.971395
41.682022 26.157703 -23.064373
63.414528 3.8378367 -34.7248
0 -2.2846661 -9.5839977
57.263161 -7.2563782 34.147297
53.347244 -29.211525 19.151184
80 2.37644 -21.657845
80 15.444742 6.0281019
64.636909 20.715 28.091448
78.748878 -8.544775 -33.917713
22.545094 26.50436 22.811512
80 -10.272815 29.00975
72.227943 28.953003 -19.491596
70.377022 0.58280385 34.950397
35.302631 -22.702656 26.546021
56.551277 -8.9198685 -33.835094
24.126774 -8.3903894 33.85202
32.162643 30.483145 -17.006489
33.200527 -8.1196213 -33.990616
0.78919888 -24.021696 -25.426853
5.8772802 25.321022 -24.015028
73.319855 34.838154 -1.5821413
80 12.528858 -30.710392
21.15468 7.764174 34.015076
34.779888 8.7868471 -33.876205
40.125046 18.359947 -29.690079
29.540688 33.840965 8.5932722
16.358856 -26.740051 -22.402697
15.805404 28.664173 -19.960691
0 27.369719 9.5648861
80 -7.012188 20.603081
49.784492 -20.361652 -28.382133
78.244995 11.397205 -32.959797
0 -6.7430377 5.9372101
10.075827 -2.9910853 -34.869987
80 16.053169 11.506069
80 18.66065 -10.873562
80 5.0776081 25.325712
76.986275 -28.622711 -20.02803
49.932938 30.745197 16.483044
76.951553 34.329517 -6.2413077
17.467251 -21.726027 27.40811
72.979897 -8.0982924 33.928078
12.397809 -34.102989 -7.2923961
0.8533144 29.312061 -18.908449
38.593628 32.78521 -11.942595
0 -12.204509 -6.0745277
80 1.817735 4.1427794
0 -31.998926 5.3847671
0.33583164 -13.342665 -32.272423
24.339077 -27.167418 -21.917116
0 21.114454 10.46279
45.817913 -25.114712 24.234253
7.707334 8.8837652 -33.847847
80 -23.044434 -24.686872
0 16.852133 17.086332
77.655624 28.20785 20.508244
80 4.9106388 -25.254028
58.755363 -23.516829 25.765701
38.809982 -2.7809727 -34.873913
71.968124 -29.595192 18.632437
48.60675 0.89528412 -34.873913
28.882858 20.788805 -28.03723
75.867897 9.5980549 33.537571
44.475517 34.216965 -6.7635431
44.717064 -16.277115 -30.853619
63.575989 -8.7121496 33.768242
46.678753 -29.460575 18.814449
80 13.976252 -17.899483
31.091785 -34.770245 -3.1808066
78.878395 -2.9586859 -34.873913
53.42572 -20.324808 -28.411882
41.300953 3.7261286 -34.743954
0 -11.722249 19.171261
11.321716 -32.177567 -13.454781
58.796974 0.61352503 34.947784
76.471725 34.49115 5.212872
37.131187 -17.44549 -30.200926
0 -10.420533 -1.5759325
80 20.847166 9.0389318
47.44017 28.951645 19.502567
42.361237 -15.352089 31.331732
80 -31.699606 1.4460096
12.267189 -34.853069 2.3865938
18.695099 5.4883699 34.532871
0 28.789293 12.946706
27.990049 29.759148 18.410748
80 17.302372 -7.1376157
75.874863 32.908806 -11.635017
44.735699 33.434826 9.9194565
31.629471 -14.756538 31.600939
75.390022 23.69998 -25.686621
67.591438 12.208637 32.752663
75.786827 1.8410072 34.843307
9.7423124 -33.868568 8.5031309
64.891251 -12.15514 -32.692001
24.862751 -33.770985 8.8217869
65.551971 -33.080608 11.076104
0 -33.091671 -2.9850202
51.156891 -12.412226 -32.601166
80 14.851442 9.1933861
65.481369 14.840936 31.562788
63.051727 -12.59243 32.579174
21.323067 22.849361 -26.373446
23.668194 33.320637 10.292321
0 -29.925339 -4.3803053
67.177231 -19.005501 -29.329453
80 2.6057878 -34.715191
80 1.923326 19.924053
80 -27.418629 11.51708
78.582382 10.847912 -33.153873
28.28896 33.310677 10.324848
80 28.776976 4.9722633
42.3414 9.0574398 -33.786488
65.753609 31.247551 -15.765014
80 13.760496 9.6399555
80 -29.001228 -13.051324
40.454029 2.690908 -34.873913
80 10.111614 1.4020252
44.172005 -34.959179 1.5579426
0 26.601944 -8.0117035
80 -16.335678 9.7127895
59.379292 34.600967 4.3552666
48.905457 -15.160414 31.418373
0 18.456484 22.533571
22.009243 19.339575 29.02107
80 30.465958 -1.9644536
80 5.0489368 -12.786107
14.853045 -30.768147 -16.543617
44.712685 2.7664468 34.764538
0 17.5487 -16.462973
80 -11.34471 -19.446537
80 -19.453739 -7.2406397
56.328754 -4.993948 34.574951
0 -10.168768 -30.829281
0.71725368 -21.882244 27.302526
75.829048 5.9790382 -34.357651
80 34.811062 1.6816422
4.8796558 34.765583 3.0697787
43.195866 -32.790062 12.024826
0 -8.2665291 31.734589
42.003899 23.408989 25.869059
0 2.2847905 13.386511
49.118557 -28.848873 -19.660713
51.965412 31.19479 -15.850702
49.827301 -34.39595 -5.9330482
37.143051 1.042284 -34.873913
80 -25.061207 9.106945
38.337955 30.945852 16.085073
80 -19.511433 22.953619
80 -1.711235 -23.670444
38.599049 -22.36821 26.866562
49.946369 -32.41798 13.165279
0 -7.5736871 14.203969
0 28.56443 -2.5369854
47.22805 34.618149 4.2211089
12.260704 28.88908 19.58716
80 13.696848 22.265541
18.519577 -12.17351 -32.685509
41.127796 -33.97979 -7.8640251
80 22.547235 3.149004
65.418869 18.601192 29.520132
15.767712 -34.657478 -4.7195411
66.502663 -34.887909 -0.41083872
75.454361 31.703552 -14.634407
27.378197 -10.888236 33.201633
0 17.267223 1.2601233
0.083093643 -27.728466 -21.279642
51.837669 27.862915 -21.126879
73.926132 -33.219666 -10.861407
24.070362 -20.412167 -28.341345
56.360031 -31.32246 15.33812
80 -5.5497532 11.687152
51.283955 -32.676426 -12.213322
38.971619 20.676682 -28.127762
65.223923 -17.618122 30.184568
48.784866 26.514627 22.79763
43.684521 -9.9092808 33.456532
4.4975424 14.89958 31.53628
80 -4.6181374 -27.261911
67.202881 -18.932455 29.296236
0 10.844479 -21.452724
75.580177 -20.655731 28.131506
56.257507 -24.980003 -24.4025
24.558191 -22.570314 -26.598763
74.669319 -16.649641 30.745203
1.248045 7.6496787 34.044891
80 -24.183357 -1.0890751
9.1867828 17.666599 -30.077404
80 10.716024 17.777637
45.392143 -7.1775599 -34.152145
43.355759 -33.856056 -8.4381609
80 -12.719342 31.403839
11.393914 -33.445377 9.8850079
76.942078 25.239582 -24.107561
73.899834 28.404181 -20.38294
0 27.733452 6.7355051
37.264767 -34.917995 0.29737827
50.323799 33.472492 9.796464
0 23.252123 -18.382496
17.511339 34.533928 4.8787851
0 8.5672626 -14.37414
80 -16.713406 -14.131653
12.435899 30.085438 17.791607
80 9.0587044 1.8873701
80 -11.659992 -9.3571892
0 -28.150898 11.406195
61.237469 -3.6945472 -34.749371
0 7.9438934 -30.22168
27.236427 24.726694 24.606136
14.847598 26.01713 -23.224094
62.455132 -12.191794 -32.67905
0 -10.216632 5.1839771
49.053432 10.314655 33.350983
4.4353104 34.743443 -3.8118212
0 9.7689953 -23.501156
0 7.6241045 19.283543
80 14.061026 16.932442
5.5206633 -8.4169226 33.845112
70.572342 -33.753853 -8.9123974
51.759346 23.239132 -26.058729
49.832249 -26.910467 22.262424
71.833008 -21.688061 -27.311132
75.593124 34.006584 8.0524702
32.224758 -18.318281 29.711346
0.43796539 16.925909 -30.49118
4.0745068 -24.610752 24.717258
8.0463934 20.612602 -28.179508
0 -7.3122292 5.3168383
70.93618 -33.833935 -8.5408058
0 -16.175034 -26.606501
80 -10.08476 -10.870039
0.037660599 28.701607 -19.899887
43.481026 19.644468 28.815001
71.907196 -19.834871 28.68631
11.283693 -12.506031 -32.568027
0 -18.555483 -25.64916
58.553474 -21.493822 -27.467968
80 0.89365959 -7.3953581
80 -13.360451 -5.7200089
21.163265 31.82777 14.335894
80 -17.932289 -6.0280657
14.087434 -29.733025 18.446075
16.295071 29.548733 18.69525
80 33.362877 -3.0630322
57.528671 -5.6402006 -34.415752
61.797646 -33.054401 -11.272691
0 3.8668168 -5.4721527
63.30434 -34.080975 -7.3945384
63.061935 3.6715288 34.687504
65.167068 -5.6761255 34.516888
80 9.1194677 23.338497
16.486645 -34.812405 -2.1883423
35.397453 -22.805662 26.447296
70.927521 -29.018795 19.411772
57.606937 -13.147526 32.328259
63.308395 -34.734646 -4.0187993
51.409203 -12.581543 32.584099
80 -1.1097775 -4.989954
45.797768 33.866283 8.5105934
40.725975 21.690773 27.431938
24.60146 30.126038 -17.586468
80 17.291649 20.595797
0 -12.933299 9.8940706
5.596992 -11.667752 32.997158
51.297066 -34.221615 -6.741971
80 3.6112487 32.58255
27.333117 -11.546389 -32.907085
27.540764 -3.2189236 -34.830925
80 -19.534573 -21.004971
80 16.895338 30.402809
0 -19.797239 -5.9330606
28.18441 -31.92584 14.141384
63.327297 -32.04427 -13.786499
32.137215 -14.48782 -31.853182
59.627182 17.113316 30.525761
78.303635 16.914989 30.625257
43.806381 -11.035465 -33.087605
0 -18.244263 14.459295
72.276237 -5.3732333 -34.461529
0 -1.8287201 -2.3443422
0 -10.172238 -28.053774
65.291145 34.313255 -6.3167539
80 14.917764 -22.158855
78.798119 -34.070168 7.8448477
42.153198 -20.977806 27.913822
33.757648 -10.370293 -33.322628
80 -3.3146124 18.580528
80 1.2183366 -32.056702
75.146484 -31.858889 -14.247836
80 -2.1038074 -5.8326025
0 26.110826 -9.1864624
80 -19.64134 16.25703
56.674397 -20.455767 28.266655
57.349678 -18.41951 29.642929
80 -31.149862 13.730019
80 -7.5806694 17.24054
33.135792 -22.055656 27.166119
0 -2.606111 -23.674297
0 8.5532331 28.430475
56.128868 30.685356 16.601738
69.695694 34.24572 -6.6301231
1.1591673 8.8806725 33.724361
70.04026 -31.390438 -15.41362
23.739729 -34.522579 4.9674144
80 -29.540947 -3.5591254
2.7176809 -29.659359 -18.344402
30.745333 20.235895 28.415264
22.904419 32.703247 12.308311
0 -33.72953 8.2442274
15.120182 -23.686634 25.602955
73.122002 -33.127232 -11.091441
80 11.081729 5.5861549
0 17.783325 9.2723446
80 -24.376713 20.428198
0 13.983993 13.274179
42.154053 -34.788586 -2.7490373
48.022591 17.182508 -30.347836
80 20.270815 -12.368628
25.832684 28.287596 -20.572289
80 -23.705967 19.805836
69.785149 -9.4369202 33.579529
0 7.3258905 29.448462
74.125877 -0.98417974 -34.873913
15.318656 27.056122 22.065479
