# .PCD v0.7 - Point Cloud Data file format
VERSION 0.7
FIELDS x y z
SIZE 4 4 4
TYPE F F F
COUNT 1 1 1
WIDTH 284
HEIGHT 1
VIEWPOINT 0 0 0 1 0 0 0
POINTS 284
DATA ascii
-0.013299999 0.0052274293 -0.032030724
-0.0050116563 0.0031247593 -0.033175685
0.0041617705 0.0036512252 -0.033712428
0.013943724 0.0049671754 -0.031701989
-0.01457949 0.013010908 -0.031600188
-0.005558806 0.015293143 -0.034377415
0.0033934605 0.016883917 -0.034761544
0.014434718 0.016913496 -0.031676207
-0.01346288 0.023991205 -0.032108489
-0.005540113 0.025966471 -0.034319393
0.0043093394 0.024714885 -0.034549747
0.015955588 0.02315316 -0.030976543
-0.014180911 0.034223121 -0.031764403
-0.0053103655 0.035912283 -0.034326207
0.0043960745 0.034783807 -0.034475636
0.013695063 0.033996519 -0.032025468
-0.015705615 0.047343094 -0.03113742
-0.0070636822 0.046541698 -0.034078501
0.0051277806 0.044699773 -0.034490168
-0.01446721 0.057260238 -0.031624645
-0.0052361153 0.05619723 -0.034381591
0.0066752778 0.054005489 -0.034151684
0.014286141 0.054194368 -0.031749513
-0.014132882 0.065432847 -0.031879887
-0.005874176 0.061043769 -0.034315836
0.0059495806 0.065377809 -0.034314588
0.015643211 0.066201344 -0.03118954
-0.015520143 0.07692302 -0.03119795
-0.0055246586 0.075631112 -0.034416489
0.0046157506 0.074032359 -0.034462601
0.013439961 0.075463146 -0.032176849
-0.012648195 0.079999998 -0.031516057
-0.004210074 0.079999998 -0.033078425
0.009090919 0.079999998 -0.031350475
0.010656743 0.079999998 -0.031630605
-0.024967944 0.0013152302 -0.023942549
-0.015869701 0.00039069704 -0.025415102
-0.0070505929 0 -0.027346522
0.006262972 0 -0.026024926
0.016249759 0.0016256372 -0.026567461
0.024920007 0.0036760303 -0.024032461
-0.025175389 0.014161715 -0.024082782
-0.019141473 0.014277887 -0.029219385
0.019230647 0.0156924 -0.029113526
0.023548864 0.013534568 -0.025415406
-0.025319953 0.025421403 -0.023932878
-0.018908937 0.025923941 -0.029391365
0.019799186 0.028686594 -0.028763518
0.025489984 0.025062488 -0.023606412
-0.023823969 0.036040675 -0.025164051
0.018795757 0.03491715 -0.029381258
0.023885062 0.034334049 -0.025257554
-0.024562616 0.045054235 -0.024547486
-0.01879853 0.046718508 -0.029430978
0.025346078 0.044409659 -0.023722712
-0.025635669 0.053883504 -0.023639867
0.018933725 0.053599436 -0.02929632
0.023462143 0.054962128 -0.025669953
-0.024469022 0.064972177 -0.024632413
-0.018670399 0.066386208 -0.029532731
0.025417082 0.065263599 -0.023705678
-0.025160726 0.075798273 -0.023906624
-0.018580977 0.07566011 -0.029631451
0.018115912 0.07476671 -0.02822746
0.024659902 0.074556477 -0.02449479
-0.021168726 0.079999998 -0.02359435
-0.015021909 0.079999991 -0.024601679
-0.0039370633 0.079999991 -0.024928361
0.0034607837 0.079999998 -0.026307836
0.015079619 0.079999991 -0.023774229
-0.031480841 0.0043021068 -0.014409393
-0.02891572 0.0049018352 -0.019278953
-0.011760394 0 -0.016130593
-0.003688433 0 -0.013417679
0.0031026707 0 -0.01372226
0.015604809 0 -0.016539712
0.026382755 0.0016405114 -0.015829846
0.031942192 0.0058390605 -0.01332117
-0.031844176 0.014119787 -0.014218166
0.030916734 0.016032094 -0.016049471
-0.033080865 0.026373815 -0.011192843
-0.029467534 0.025205417 -0.018678281
0.029782079 0.025414657 -0.01819551
0.032038487 0.022948233 -0.013730899
-0.032333314 0.034406766 -0.013130149
-0.028978966 0.034314975 -0.019401282
0.028853338 0.030555943 -0.01977814
0.032078914 0.036482178 -0.013722728
-0.032157999 0.046076886 -0.013326356
-0.028991273 0.045327432 -0.019383077
0.029366732 0.044896025 -0.018938975
0.031374946 0.045626517 -0.015180647
-0.031128744 0.055072084 -0.015742864
-0.029404983 0.057444058 -0.018770851
0.029880902 0.055463556 -0.018018622
0.032015599 0.055347752 -0.013555942
-0.031861585 0.064425707 -0.014089216
-0.029562891 0.066834442 -0.018537171
0.028761433 0.067185961 -0.019891948
0.031805336 0.06535466 -0.014321538
-0.03212158 0.076551661 -0.013457701
-0.029625915 0.075567655 -0.018443903
0.029344611 0.077258982 -0.018978575
0.032092612 0.075947084 -0.013625141
-0.030933591 0.079999998 -0.011134748
-0.024417449 0.079999991 -0.016144414
-0.015534386 0.079999998 -0.015429711
-0.0037926219 0.079999991 -0.015198878
0.0023625786 0.079999998 -0.01470289
0.014965695 0.079999991 -0.014732521
0.022858473 0.079999991 -0.012188618
0.032536495 0.079999998 -0.010764184
-0.033870041 0.003067784 -0.0049462784
-0.02413995 0 -0.0056860829
-0.015801933 0 -0.0044125775
-0.0066521657 0 -0.0049166232
0.00663955 0 -0.0042241341
0.016413789 0 -0.0073660146
0.02493838 0 -0.0049409429
0.034103319 0.0040077772 -0.0068368632
-0.034405362 0.013363075 -0.0058601717
0.034378488 0.012631572 -0.0052663554
-0.034242298 0.022968041 -0.0064093778
0.034559451 0.025550965 -0.0042868373
-0.034200519 0.034660935 -0.0067802006
0.034635767 0.036228538 -0.0033100308
-0.034762174 0.043615013 -0.0027967026
0.034480415 0.043651506 -0.0048471601
-0.034539599 0.056103125 -0.004807415
0.034444813 0.054952368 -0.0053156116
-0.034263145 0.064969242 -0.006402086
0.034534413 0.065045342 -0.0042277649
-0.034407176 0.07413397 -0.0047747316
0.022196032 0.079999991 -0.0099078193
0.03454262 0.074862935 -0.0042838408
-0.023913948 0.079999991 -0.004002505
-0.01504896 0.079999998 -0.00583738
-0.0061906008 0.079999998 -0.0070120124
0.0035549211 0.079999998 -0.0075723552
0.015580335 0.079999991 -0.0039397553
0.025242224 0.079999998 -0.005316813
0.033964198 0.079999998 -0.0081664259
-0.033035386 0.0020330397 0.0046172547
-0.024434911 0 0.005637344
-0.014883387 0 0.0055372892
-0.0060865036 0 0.0060844375
0.0035150086 0 0.0029367404
0.012544357 0 0.0023506063
0.027055722 0 0.0046026078
0.034452461 0.0029988438 0.0026442367
-0.034468427 0.013761967 0.0045779794
0.034426417 0.014093979 0.0047169942
-0.033929426 0.024211433 0.0074473489
0.03483104 0.025249109 0.0021176999
-0.034702525 0.037052654 0.0033640387
0.034498785 0.034532182 0.0047530383
-0.034223706 0.044174235 0.0062038605
0.034486316 0.046935543 0.004832705
-0.034373052 0.055875815 0.0054300111
0.034468256 0.056569193 0.0048945239
-0.034368992 0.065529756 0.0054470995
0.034571409 0.064178146 0.0043846895
-0.034509413 0.074273974 0.0042682318
0.034651667 0.076642312 0.0033193757
-0.032037742 0.079999991 0.0045443107
-0.025571173 0.079999991 0.0058272826
-0.015434351 0.079999991 0.0065133199
-0.0052162721 0.079999991 0.0057044094
0.0043217549 0.079999998 0.0048409076
0.01491259 0.079999991 0.005095385
0.024688721 0.079999998 0.0047192588
-0.03226402 0.0040780511 0.013289727
-0.02437257 0 0.014554843
-0.01674263 0 0.015346225
-0.0036219577 0 0.015020957
0.0049331225 0 0.017765729
0.015306331 0 0.014301121
0.025962073 0.001620392 0.017127372
0.031924348 0.0047680149 0.013822971
-0.030944634 0.015610859 0.016139233
0.031711619 0.01499912 0.014316314
-0.032394081 0.024580169 0.012918467
-0.028804431 0.023563452 0.019659569
0.032890882 0.023842128 0.011592866
-0.032025121 0.031397715 0.013818025
-0.029303713 0.033915281 0.01892071
0.032043442 0.034254193 0.013540901
-0.031620927 0.044628423 0.014711842
0.029806696 0.041721024 0.018151443
0.032010019 0.043094706 0.01372942
-0.032375354 0.055737168 0.013043533
-0.0296425 0.057349674 0.018419359
0.032197617 0.053998031 0.013286264
-0.032064993 0.064626694 0.013543427
-0.028885378 0.066902541 0.019539783
0.029446727 0.065885186 0.018795792
0.032418557 0.065095298 0.012926604
-0.031987101 0.074153006 0.013902102
-0.02903571 0.073897704 0.01931731
-0.0091289887 0.079999991 0.016572682
0.029769104 0.076587722 0.018218737
0.031604398 0.07694912 0.01477618
-0.031777099 0.079999998 0.013156542
-0.021928906 0.079999998 0.01507586
-0.014818923 0.079999991 0.015717207
-0.0059979227 0.079999991 0.01464386
0.0052450099 0.079999998 0.014300153
0.016246365 0.079999991 0.015417852
0.024241086 0.079999991 0.016860992
0.031818792 0.079999998 0.012868846
-0.02482266 0.0030518223 0.023789298
-0.015142046 0.00019471467 0.024259511
-0.0063539175 0 0.023841809
0.0077374857 0 0.025037263
0.016086584 0.0003397101 0.026082054
0.022959508 0.002788984 0.025478607
-0.025284532 0.016052213 0.023861535
-0.018905697 0.016293356 0.029393757
0.023000129 0.015570184 0.026179574
-0.023008876 0.024245439 0.026000913
-0.01892793 0.025969857 0.029348189
0.019079445 0.025861422 0.029206609
0.023813462 0.024824461 0.025301058
-0.02562188 0.034184396 0.023555133
0.018794261 0.031165302 0.029382177
0.024179421 0.034673218 0.024821918
-0.023732388 0.045841157 0.025453135
-0.019282408 0.045605876 0.029115155
0.019397484 0.046058863 0.029010814
0.024493424 0.04550413 0.02456378
-0.024432423 0.057033204 0.024677299
-0.019009531 0.053738128 0.029316967
0.0188138 0.056437962 0.029370148
0.025542388 0.055226274 0.023587288
-0.021979561 0.063239679 0.0271204
-0.018953072 0.06928239 0.02935872
0.018938679 0.064205378 0.029293265
0.02366801 0.065177865 0.025486413
-0.024543742 0.076286085 0.024491386
-0.018989025 0.074105732 0.029332133
0.018614875 0.071521401 0.029492609
0.024603488 0.075785883 0.024392756
-0.023245525 0.079999991 0.022534775
-0.014017905 0.079999998 0.024262259
-0.0059591322 0.079999998 0.025132438
0.0052402406 0.079999991 0.025832111
0.015276967 0.079999998 0.022861822
0.025776954 0.079999998 0.020768488
-0.012601066 0.0052012508 0.032527652
-0.0043684365 0.002435578 0.032248758
0.0047144038 0.0012803006 0.03327065
0.013342239 0.0037577685 0.03180657
-0.014224544 0.013553225 0.03180873
-0.0056131785 0.014755123 0.034381457
0.005377756 0.015285918 0.034421198
0.013920506 0.01258391 0.03196035
-0.015096447 0.024332197 0.031396639
-0.0041308361 0.023948386 0.034557454
0.0055914279 0.026267128 0.034454871
0.013770145 0.025507689 0.031981766
-0.014569774 0.03644111 0.031612344
-0.0038330588 0.034431361 0.034566171
0.0049307826 0.033111699 0.034494918
0.012824137 0.034170993 0.032430895
-0.015144528 0.044746108 0.031376604
-0.0059429817 0.044988286 0.034321036
0.0040883436 0.044548273 0.034554463
0.012454107 0.044609427 0.032579634
-0.013478191 0.054882474 0.032078393
-0.0043636486 0.055187851 0.034511548
0.0061108768 0.055038556 0.034335975
0.012947853 0.053734913 0.032381166
-0.013712759 0.066118971 0.032005109
-0.0046771583 0.065201879 0.03448081
0.0036925212 0.063306749 0.034568951
0.01213791 0.064000703 0.032687034
-0.013799259 0.074723892 0.031979017
-0.0066369427 0.076672405 0.034275316
0.0053878562 0.075034805 0.034332428
0.012691081 0.07512337 0.032476936
-0.014523297 0.079999998 0.030727135
-0.0071978639 0.079999998 0.032214165
0.0040343637 0.079999998 0.032153666
0.012885306 0.079999998 0.030139923
