# .PCD v0.7 - Point Cloud Data file format
VERSION 0.7
FIELDS x y z
SIZE 4 4 4
TYPE F F F
COUNT 1 1 1
WIDTH 535
HEIGHT 1
VIEWPOINT 0 0 0 1 0 0 0
POINTS 535
DATA ascii
0.001370306 -0.02051194 -0.032155752
0.014208407 -0.022245027 -0.033050269
0.025321651 -0.023314411 -0.032257877
0.036287874 -0.02280888 -0.032620583
0.04525641 -0.022832604 -0.032612119
0.052187402 -0.023560965 -0.03216077
0.065001793 -0.023262596 -0.032337803
0.07462205 -0.023085009 -0.032551445
0.086501151 -0.024021644 -0.031702414
0.09554185 -0.022637168 -0.032781214
0.10583314 -0.024711223 -0.031168206
0.11459248 -0.02280131 -0.032584809
0.12557225 -0.022515066 -0.032861624
0.13323343 -0.023397615 -0.032161903
0.14615583 -0.023598263 -0.032130156
0.1561076 -0.022868648 -0.032671966
0.16 -0.02158392 -0.033229411
0.0037693055 -0.014621903 -0.036034089
0.012645509 -0.016007083 -0.036338516
0.024757661 -0.013974285 -0.03712013
0.034240082 -0.015719946 -0.036451306
0.04816689 -0.014596763 -0.036876008
0.057229947 -0.01673835 -0.036116049
0.064067043 -0.015273256 -0.036635581
0.074315369 -0.015718503 -0.036534816
0.083870776 -0.014129428 -0.037233323
0.095324978 -0.01536764 -0.036693987
0.10598811 -0.014941493 -0.036860578
0.11353981 -0.014476481 -0.03710825
0.12597768 -0.015426298 -0.036638133
0.13532527 -0.013147385 -0.037524804
0.14372805 -0.014923652 -0.036908694
0.15292279 -0.012613126 -0.037669066
0.15999998 -0.014145813 -0.033298988
0.0028755623 -0.006220527 -0.036500379
0.013253745 -0.0036610567 -0.039639238
0.024365699 -0.0051655951 -0.039417263
0.035097085 -0.0022167177 -0.039781563
0.043498244 -0.0046075019 -0.039481979
0.052470922 -0.0056346729 -0.039444763
0.063979767 -0.0050821658 -0.039445765
0.076448262 -0.0079760524 -0.03908053
0.085295491 -0.0055556479 -0.039441187
0.095045991 -0.004866824 -0.039515886
0.1048211 -0.0046413317 -0.039542645
0.11317129 -0.00098060805 -0.039903373
0.12521498 -0.0039085699 -0.039614853
0.13442661 -0.0033436753 -0.039629586
0.14672081 -0.0061491965 -0.039355461
0.1555174 -0.0053803171 -0.039397109
0.15999998 -0.0036292716 -0.034653936
0.0031679184 0.0033845974 -0.037543822
0.014522439 0.0062532448 -0.039323978
0.024710847 0.0043494734 -0.039536323
0.034453683 0.005756998 -0.03931224
0.047580402 0.0031549872 -0.039689109
0.055309549 0.0028923247 -0.039675519
0.064903326 0.0062799118 -0.039255183
0.074860424 0.0051287455 -0.039400149
0.085003272 0.0045464998 -0.039517798
0.095051058 0.0051794103 -0.039449774
0.1033906 0.0049946974 -0.03947721
0.1146072 0.0051094783 -0.039415009
0.12174343 0.0020238375 -0.039800573
0.13793747 0.0042658616 -0.039542917
0.14334841 0.0053254119 -0.039387167
0.1569134 0.0043510301 -0.039491192
0.15999998 0.0048575425 -0.035113525
0.0032885212 0.014046988 -0.036083557
0.017418867 0.016707113 -0.036022354
0.025759047 0.016019631 -0.036433868
0.033968799 0.015185165 -0.036902234
0.045762677 0.013186931 -0.037507314
0.056211635 0.013864401 -0.037200842
0.065199465 0.016197287 -0.036237273
0.074943431 0.015123876 -0.036905687
0.083466396 0.014612643 -0.037021361
0.095038056 0.014447716 -0.037148044
0.10282053 0.015415179 -0.03674138
0.11324663 0.015522356 -0.036568981
0.12357938 0.016114946 -0.036324896
0.13302834 0.014210099 -0.037063338
0.14557751 0.015471155 -0.036544215
0.15644783 0.015718879 -0.036389906
0.16 0.014890253 -0.034830824
0.0032073981 0.023253292 -0.031874958
0.01519441 0.023224469 -0.032436974
0.026425846 0.022276191 -0.032959364
0.035687499 0.022516951 -0.032878634
0.04426362 0.023219211 -0.032359298
0.055925906 0.023849165 -0.031854041
0.06600523 0.022114892 -0.033141892
0.076142579 0.023475533 -0.032157816
0.086621039 0.025769524 -0.030347936
0.095685504 0.022576507 -0.032876417
0.10688335 0.023086727 -0.032429345
0.11535484 0.023048477 -0.032553293
0.12646146 0.023859952 -0.031855274
0.13382821 0.023149714 -0.032416701
0.15486085 0.023550952 -0.032145917
0.004082798 -0.032361247 -0.023287904
0.014359115 -0.033298105 -0.021986131
0.023862727 -0.031082582 -0.024874512
0.035673428 -0.032520622 -0.023106864
0.044738282 -0.032314025 -0.02326805
0.055322796 -0.032592766 -0.023034673
0.064322278 -0.031582307 -0.024232291
0.074387208 -0.032408688 -0.022979975
0.084217668 -0.031182136 -0.024753226
0.094567262 -0.033132523 -0.022047099
0.10385726 -0.031936016 -0.023709804
0.11254309 -0.033159789 -0.022050349
0.1251338 -0.033509005 -0.021575285
0.13413727 -0.032878276 -0.022517659
0.14455561 -0.031700619 -0.023996405
0.1528974 -0.031377163 -0.024515627
0.0030048531 -0.02617624 -0.026731718
0.018246517 -0.026434816 -0.029801851
0.021954028 -0.028554345 -0.027860269
0.034295838 -0.027953813 -0.028490279
0.048577152 -0.026871813 -0.02944315
0.052581016 -0.027985172 -0.028367314
0.06323579 -0.028328577 -0.028093791
0.076446623 -0.026625097 -0.029645663
0.08324936 -0.028151443 -0.028252777
0.095783509 -0.027626013 -0.028824091
0.10782058 -0.027706975 -0.028757632
0.11335234 -0.028318353 -0.028060917
0.12126411 -0.026782157 -0.029516747
0.13414465 -0.028950982 -0.027471421
0.14486119 -0.028087484 -0.028445307
0.15687695 -0.028681703 -0.027751684
0.16 -0.027410232 -0.026327213
0 -0.013893683 -0.025728771
0.15999998 -0.013395771 -0.02408528
0 -0.0061789826 -0.024816353
0.15999998 -0.0038564058 -0.024294555
0 0.0056792996 -0.024773121
0.16 0.006423994 -0.027032657
0 0.013881945 -0.023637867
0.16 0.014520223 -0.023885129
0.0022489051 0.026823273 -0.025268754
0.013965577 0.028399408 -0.027880892
0.024947524 0.028031534 -0.028335391
0.034798596 0.028127016 -0.02826041
0.044686995 0.028806221 -0.027595466
0.057547111 0.028303023 -0.028051725
0.063389391 0.027565753 -0.028748397
0.071780287 0.029595308 -0.026686449
0.084690914 0.02762546 -0.028756659
0.094547458 0.028920904 -0.027508069
0.10832532 0.027557179 -0.028880592
0.11599028 0.028759064 -0.027636396
0.1289652 0.029042128 -0.027327333
0.13378233 0.027841507 -0.028520707
0.14579257 0.027287602 -0.029084474
0.15562728 0.029534269 -0.026760804
0.16 0.024011906 -0.022203449
0.0021564311 0.032273691 -0.022564774
0.015833644 0.031434909 -0.024364535
0.022230487 0.031217698 -0.024709903
0.034031086 0.03213628 -0.023555076
0.043387368 0.032405093 -0.022992373
0.055181887 0.031940348 -0.023829509
0.063935831 0.033136945 -0.021951148
0.076301634 0.032091517 -0.023543661
0.081127875 0.034174297 -0.020510288
0.10429963 0.032625847 -0.022817587
0.11537753 0.032559674 -0.023074981
0.12412074 0.034436926 -0.02001885
0.1351705 0.032083303 -0.023507254
0.14638191 0.032172743 -0.023544932
0.15587579 0.032256067 -0.023366544
0.16 0.031019947 -0.024888033
0.0041191732 -0.036553569 -0.013066142
0.015240444 -0.036141742 -0.016703261
0.025330305 -0.037033755 -0.014515501
0.036922637 -0.036490936 -0.015930835
0.046302341 -0.036889285 -0.014832091
0.055983238 -0.036775533 -0.015140194
0.066204615 -0.036741097 -0.015160854
0.073504932 -0.036535319 -0.015841147
0.083451986 -0.03700633 -0.014330232
0.095172048 -0.03687517 -0.015014966
0.10361341 -0.03590928 -0.017263755
0.11497737 -0.036645968 -0.015197924
0.1238947 -0.036607012 -0.015372897
0.13475348 -0.036684342 -0.015375514
0.14613648 -0.035021316 -0.018925332
0.15295206 -0.037358843 -0.01314295
0.16 -0.03475485 -0.014356336
0 -0.023553994 -0.015033255
0.15999998 -0.023631142 -0.014565417
0 -0.014041035 -0.012934708
0.15999998 -0.013486683 -0.015064088
0 -0.0024905072 -0.017455557
0.15999998 -0.0043288893 -0.015166117
0 0.0064572208 -0.016954223
0.15999998 0.00063799118 -0.012311543
0.15999998 0.0064782319 -0.01398419
0 0.01133329 -0.016054736
0.16 0.016191848 -0.01632238
0 0.024599034 -0.016090434
0.15999998 0.02441512 -0.016234899
0.0034717845 0.03474031 -0.014983479
0.016179688 0.037098628 -0.01438719
0.025532892 0.036799818 -0.014967631
0.035492629 0.03654284 -0.015666939
0.043597542 0.036474418 -0.015564366
0.056491982 0.037255552 -0.013753137
0.063328765 0.03729609 -0.013829437
0.076922461 0.03694706 -0.014712521
0.083573595 0.037255265 -0.014027247
0.096363254 0.036970355 -0.014333883
0.10311689 0.037452392 -0.013327533
0.11373002 0.036517184 -0.015435937
0.12280871 0.036923707 -0.0149447
0.13362525 0.037738372 -0.012633897
0.144694 0.036513284 -0.015985696
0.15588783 0.037313737 -0.013698527
0.16 0.036625303 -0.015061046
0.0038561302 -0.037258636 -0.004101051
0.0160964 -0.039297681 -0.0060762684
0.025094682 -0.039518189 -0.0048895502
0.031360909 -0.038951959 -0.0087238746
0.044814132 -0.039625064 -0.0038049622
0.054792061 -0.039544281 -0.0046247407
0.066954367 -0.039696351 -0.0030814859
0.076847546 -0.039360285 -0.0058653108
0.085291408 -0.039596338 -0.0038615707
0.092809282 -0.039485507 -0.0045061167
0.10510322 -0.039490532 -0.0045935377
0.1148114 -0.039466865 -0.0051858127
0.12456086 -0.039647326 -0.0033047858
0.13461578 -0.039831288 -0.0017121284
0.1443896 -0.039581399 -0.0042480221
0.15469521 -0.039455868 -0.0050195148
0.16 -0.036771219 -0.004277728
0 -0.024327623 -0.0049739545
0.15999998 -0.024530519 -0.0049594413
0 -0.015188552 -0.0056945262
0.15999998 -0.012425974 -0.0051547773
0 -0.0059087272 -0.0069948933
0.15999998 -0.0043271924 -0.0062903352
0 0.0049942769 -0.0045742197
0.16 0.00719654 -0.004742519
0 0.015395612 -0.0033270777
0.16 0.01343894 -0.0078872321
0 0.023633571 -0.0020422612
0.16 0.023384595 -0.0017662952
0.0016665404 0.037402827 -0.0062191905
0.012563476 0.039255943 -0.0065303692
0.024044042 0.03929995 -0.0064695985
0.033722669 0.039447173 -0.0051627127
0.048084479 0.039727107 -0.0027693484
0.055004645 0.039093081 -0.0081191892
0.064754486 0.039469026 -0.004930689
0.075217791 0.039652795 -0.0035235421
0.084481277 0.039724369 -0.0027971524
0.094975285 0.039360993 -0.0059315008
0.10523298 0.039418377 -0.0050913864
0.11528236 0.0393565 -0.0057066418
0.1271552 0.039888203 -0.0011344824
0.13417822 0.039512809 -0.0048645274
0.14624043 0.039397836 -0.0053415145
0.15738514 0.039378557 -0.0054687941
0.16 0.034298636 -0.004680106
0.001789685 -0.03720624 0.0052726832
0.016546613 -0.039646849 0.0035838578
0.026909076 -0.039323285 0.0058299061
0.033468582 -0.039440103 0.0056609246
0.044661433 -0.039728168 0.002758547
0.057411157 -0.039512765 0.0047477656
0.065791011 -0.039236385 0.006447813
0.075296022 -0.039627999 0.0037751354
0.085189328 -0.039377786 0.0057881572
0.094926313 -0.039292689 0.0065680942
0.10529186 -0.039469548 0.0049724197
0.11493345 -0.039547123 0.0041904217
0.12357712 -0.039338131 0.0057861926
0.1362206 -0.039440636 0.0045324718
0.14481941 -0.039489556 0.0047121625
0.15618119 -0.039463762 0.0050007151
0.16 -0.034312144 0.0030532507
0 -0.028366884 0.0091385497
0.15999998 -0.025705317 0.0042762095
0 -0.017262308 0.0067239217
0.15999998 -0.018963922 0.0071596177
0.16 -0.01431794 0.0064088278
0 -0.0050743106 0.0077254139
0.15999998 -0.0056312545 0.0029858362
0 0.0037401698 0.0053937482
0.16 0.0065267272 0.0062852846
0 0.015869122 0.0033782567
0.15999998 0.015553291 0.0050818319
0 0.026401618 0.0067140893
0.15999998 0.024244549 0.0057656844
0.0019590824 0.036808439 0.0051471987
0.014209232 0.039525393 0.0048164302
0.024465632 0.039345853 0.0059968862
0.034483701 0.039745085 0.0025869312
0.044760499 0.039379295 0.0055338587
0.054899957 0.039605938 0.0039284057
0.064911544 0.039616775 0.0038525471
0.074374385 0.039603684 0.0039474694
0.086757481 0.039419327 0.0053365072
0.094852425 0.039231163 0.0061293612
0.10452274 0.039574638 0.0043166797
0.11268032 0.039588999 0.0041709566
0.12534812 0.039283611 0.0061637238
0.13491441 0.039484557 0.0048512225
0.14471769 0.039919652 0.00081540365
0.1570252 0.039366622 0.0053709107
0.15999998 0.033570457 0.0059947167
0.00081009092 -0.034638684 0.015404834
0.015403618 -0.03632107 0.016010022
0.025783872 -0.035713527 0.017526332
0.036893304 -0.036979605 0.014734265
0.045212694 -0.03723409 0.013874909
0.054212641 -0.036706857 0.015423809
0.063524432 -0.036774367 0.014998123
0.075535111 -0.037905041 0.012175112
0.084181368 -0.036797974 0.015370901
0.095378697 -0.036754496 0.015036197
0.10529928 -0.036516633 0.015705297
0.11599866 -0.03648679 0.016049657
0.12316172 -0.035982665 0.016844405
0.13504386 -0.036473304 0.015649948
0.14464583 -0.037166003 0.014077338
0.15648107 -0.037528414 0.013293714
0.15999998 -0.03202752 0.015897308
0 -0.02366014 0.014923694
0.15999998 -0.025949299 0.017494569
0 -0.01633935 0.015245463
0.16 -0.01565882 0.015001074
0 -0.0055985469 0.015734889
0.16 -0.0036362121 0.018314792
0 0.007341098 0.014298
0.15999998 0.0047100778 0.014940129
0 0.016755557 0.014053728
0.16 0.017533634 0.016748097
0 0.024320308 0.017800562
0.15999998 0.027172545 0.015480415
0.0030567395 0.034482732 0.015727362
0.013823259 0.03673014 0.014937156
0.025210522 0.037344042 0.013753176
0.034051664 0.036745086 0.015146471
0.044734597 0.036294855 0.016284117
0.05760777 0.037702516 0.01284275
0.063637353 0.03688826 0.014864758
0.074633673 0.037137337 0.01393297
0.083425388 0.036829155 0.015473172
0.093166664 0.036687877 0.015229838
0.10596136 0.037119549 0.01409115
0.11503137 0.036135554 0.016449895
0.12437506 0.037053619 0.014185537
0.13441591 0.03708227 0.014498117
0.14578186 0.036239471 0.016127896
0.15408143 0.037139829 0.014183305
0.15999998 0.033700146 0.013094023
0.004048679 -0.032602355 0.022981633
0.015619938 -0.033140961 0.022184929
0.024958335 -0.031966183 0.023718193
0.035688598 -0.032652289 0.022789991
0.046330623 -0.032969154 0.022224577
0.053811293 -0.031760544 0.024048556
0.0645549 -0.032054022 0.023612641
0.076335698 -0.03282249 0.022552099
0.085612804 -0.03254595 0.022927605
0.097060859 -0.032521758 0.023102626
0.10880783 -0.030413937 0.025689114
0.11244485 -0.032686207 0.02275523
0.12598166 -0.032187585 0.02336156
0.13449673 -0.031960111 0.023777416
0.1461972 -0.034002308 0.020832116
0.15511325 -0.031796392 0.02400488
0.16 -0.032301359 0.021209788
0.0035493686 -0.026634157 0.026533237
0.016153991 -0.028084612 0.028370678
0.026870186 -0.028070832 0.0283345
0.036196563 -0.026997844 0.029339707
0.056656323 -0.02837404 0.028093895
0.064470299 -0.028289923 0.028042316
0.076981373 -0.029104093 0.027284885
0.083671466 -0.029627362 0.026647395
0.093465999 -0.028013553 0.028322324
0.1051996 -0.028040528 0.028303336
0.11487512 -0.027474828 0.028909529
0.12704039 -0.028847028 0.027588442
0.13593103 -0.027758781 0.028556684
0.14492191 -0.028407238 0.027921306
0.15475939 -0.027069917 0.026649749
0.16 -0.025082901 0.024704503
0 -0.015991438 0.024353862
0.16 -0.01294619 0.024783922
0 -0.006615364 0.025455058
0.16 -0.0038325847 0.02601634
0 0.0035844513 0.026418526
0.15999998 0.0044121905 0.024462108
0 0.014265654 0.024641747
0.16 0.01577186 0.02139914
0.0019436986 0.026571747 0.026009198
0.014170242 0.029694851 0.026565172
0.021287449 0.028237294 0.028049177
0.03520938 0.029492371 0.026811851
0.044586927 0.028270675 0.028075913
0.054133635 0.028429592 0.027960474
0.062128335 0.028281862 0.028285755
0.074798137 0.027092362 0.029200364
0.084096409 0.027807131 0.028675426
0.090049148 0.027154347 0.029211245
0.11413199 0.027384564 0.028947094
0.12490939 0.027911734 0.028443005
0.13354768 0.028273435 0.028158657
0.14449289 0.029166173 0.027181521
0.15275341 0.028541403 0.027970409
0.16 0.023453156 0.02509933
0.0045208549 0.033270001 0.021843161
0.015824098 0.032153927 0.023470977
0.024249576 0.033141192 0.022027845
0.034458444 0.033207338 0.021883355
0.045459025 0.031121548 0.024827043
0.053607944 0.031055793 0.024907148
0.065264881 0.032947753 0.022528457
0.075689614 0.032726396 0.022692226
0.08416485 0.03143141 0.024449535
0.096938968 0.031716704 0.024011934
0.10629143 0.031626146 0.024190178
0.11400623 0.033266354 0.0218917
0.1274294 0.033148848 0.022178181
0.1355349 0.033334929 0.021903858
0.15446384 0.032955918 0.02240235
0.16 0.030750152 0.024791338
0.0047503342 -0.02257473 0.032559704
0.015781054 -0.021929957 0.033335704
0.025262343 -0.02283285 0.032677364
0.036561433 -0.022876665 0.032687813
0.044809524 -0.023378177 0.032309487
0.057452802 -0.023017887 0.032537993
0.065667547 -0.023176463 0.032476377
0.07418631 -0.023163404 0.032403275
0.085448235 -0.02232147 0.032948479
0.095591553 -0.023901096 0.031829093
0.10310303 -0.020601172 0.034125727
0.11477885 -0.022840321 0.03265496
0.12410066 -0.022352057 0.032915734
0.13447861 -0.023995871 0.031762768
0.14606664 -0.023897842 0.031831063
0.15460153 -0.023004949 0.032468587
0.16 -0.021520853 0.031182364
0.0023542142 -0.013602386 0.036183443
0.016407523 -0.013707919 0.037440073
0.025201112 -0.012687733 0.037736069
0.032925054 -0.015415885 0.03665759
0.045090899 -0.015692564 0.036441036
0.053625364 -0.01140894 0.038137458
0.06530603 -0.014886978 0.036773395
0.075323209 -0.016171303 0.036354311
0.0860442 -0.014173442 0.037216801
0.094190471 -0.013466711 0.037338234
0.10489465 -0.016035385 0.036269117
0.11548139 -0.017869132 0.035585761
0.12607224 -0.015256418 0.036644142
0.13372034 -0.015743416 0.036424156
0.14621812 -0.016226672 0.036312059
0.15489665 -0.015596232 0.036478985
0.16 -0.013615849 0.032145184
0.0024584206 -0.0061327089 0.036351752
0.014736213 -0.0075497255 0.039111134
0.023242578 -0.0031117797 0.039693367
0.035637956 -0.0056699668 0.039335433
0.045677241 -0.0065236315 0.039280977
0.056321412 -0.006589334 0.039233949
0.064716488 -0.0059310268 0.039336719
0.073691569 -0.0049942927 0.039507862
0.084562935 -0.0055495859 0.039405994
0.093538366 -0.0035177742 0.039653357
0.10361364 -0.0060386211 0.039294153
0.11499009 -0.0050951606 0.039440598
0.12590577 -0.005380217 0.039425686
0.13542159 -0.0039447909 0.039596416
0.14552605 -0.0049132262 0.039512172
0.15596652 -0.0064591933 0.039261933
0.16 -0.0080011776 0.033105381
0.0036131446 0.0035430354 0.037184384
0.012602981 0.004321273 0.039574184
0.022759097 0.005895955 0.039307814
0.035663538 0.0054906998 0.03935672
0.044544984 0.0053266897 0.039439064
0.054676652 0.0030907576 0.039695438
0.066216543 0.0037406923 0.039610419
0.076175593 0.0044896789 0.039533056
0.086038388 0.0034910124 0.039601259
0.090666391 0.0078952443 0.039136056
0.10456989 0.0061158054 0.039319012
0.11634336 0.0045507238 0.039474308
0.12486717 0.0033130446 0.039673533
0.13283804 0.0038206528 0.039623514
0.14511997 0.0036088668 0.039635751
0.1552704 0.0030209732 0.039702311
0.15999998 0.0056090783 0.033638146
0.0019114827 0.014850672 0.034833632
0.015040156 0.014081463 0.03727432
0.023516482 0.015498576 0.03656771
0.035327762 0.014842686 0.036860835
0.043092091 0.014496746 0.037033375
0.057232995 0.018166287 0.035426959
0.062603027 0.012674848 0.037753452
0.077931158 0.013469018 0.037456542
0.083503678 0.015779227 0.036551386
0.094273351 0.013530369 0.037473433
0.10492219 0.016298272 0.03637084
0.1150391 0.014690325 0.036925208
0.12454091 0.013815605 0.037294231
0.13551901 0.015199384 0.036667608
0.14603628 0.015008891 0.03682521
0.15696362 0.016135294 0.036272235
0.16 0.012142705 0.032446939
0.0027848559 0.024078729 0.031665754
0.013067189 0.023381069 0.032230847
0.025769047 0.022988107 0.032511573
0.035851803 0.023068381 0.03249998
0.045115534 0.022414574 0.032893687
0.05435295 0.023344448 0.032278307
0.067331761 0.022816136 0.032772142
0.075086944 0.02169697 0.033532776
0.087842904 0.024767807 0.031170167
0.094988398 0.022460151 0.032883685
0.10347162 0.024985623 0.030991381
0.11748131 0.023668248 0.032072708
0.12446621 0.022320451 0.033105198
0.13514647 0.023313835 0.032294404
0.14414589 0.022465222 0.033011787
0.15593548 0.02319831 0.032364666
0.16 0.022953732 0.031186959
