# .PCD v0.7 - Point Cloud Data file format
VERSION 0.7
FIELDS x y z
SIZE 4 4 4
TYPE F F F
COUNT 1 1 1
WIDTH 295
HEIGHT 1
VIEWPOINT 0 0 0 1 0 0 0
POINTS 295
DATA ascii
-0.020386834 0.0043424033 -0.021891054
-0.015941653 0.0027261518 -0.024212096
-0.0050344355 0.0019221366 -0.026852507
0.0063680918 0.004051201 -0.027613539
0.016149113 0.00092928432 -0.023295434
0.020727208 0.0066529652 -0.021611702
-0.020183619 0.013467254 -0.022057835
-0.014599265 0.015303425 -0.025842339
-0.0051688091 0.014352082 -0.029338723
0.0070928549 0.015022271 -0.028985212
0.014812011 0.01536712 -0.025774796
0.021268137 0.01550754 -0.02101112
-0.020770682 0.02886509 -0.021576021
-0.013014621 0.024223052 -0.026760647
-0.0043444997 0.025078122 -0.0294552
0.0052232249 0.023461578 -0.029249681
0.016169507 0.02635563 -0.024963576
0.021254774 0.024156414 -0.021054709
-0.021070562 0.03646829 -0.021250134
-0.017154824 0.035098474 -0.024219453
-0.0045687258 0.032809887 -0.029443758
0.0056481934 0.035830945 -0.029197589
0.015662214 0.034146823 -0.025244568
0.020864852 0.033862609 -0.02140891
-0.013993209 0.046453472 -0.026225567
-0.0040716561 0.043941941 -0.029406641
0.0062933131 0.0457475 -0.02909906
0.016558638 0.046048336 -0.024673933
0.021026239 0.045166489 -0.02128277
-0.015967919 0.055001516 -0.025183816
-0.0035795972 0.055444457 -0.029586971
0.0054247603 0.055999193 -0.029131034
0.014534838 0.057240937 -0.025951194
0.020014768 0.053835213 -0.022196414
-0.02150655 0.063072309 -0.020855328
-0.013960637 0.06570863 -0.026271105
-0.0047481381 0.065936059 -0.029451221
0.0053673061 0.067001499 -0.029328527
0.012753887 0.064544693 -0.026935602
0.021297472 0.06198407 -0.020985939
-0.015336876 0.076814011 -0.025440991
-0.0060348399 0.075910017 -0.029066002
0.0056336634 0.074661575 -0.029207921
0.016144758 0.077126734 -0.025017133
0.020465275 0.070420101 -0.021826675
-0.021433881 0.08612287 -0.020840757
-0.015494145 0.084286518 -0.025475552
-0.0033176288 0.083211832 -0.029673507
0.0052060606 0.08455433 -0.029257169
0.015323031 0.085694045 -0.025614288
0.02136362 0.083580479 -0.020968614
-0.021117441 0.09481775 -0.021176614
-0.015072298 0.094770007 -0.02575619
-0.0064314106 0.095290057 -0.029063186
0.0051586605 0.098018035 -0.029254377
0.013549089 0.097209007 -0.026452048
0.021376805 0.098655246 -0.021013414
-0.020416284 0.10526066 -0.02186688
-0.014631484 0.10236163 -0.025969308
-0.0039115427 0.10415933 -0.029523978
0.0049162442 0.1030784 -0.029334106
0.016173815 0.10601892 -0.024848197
0.021191452 0.10490251 -0.02110371
-0.021202782 0.11249071 -0.02117868
-0.013822754 0.11420834 -0.026386136
-0.0039242445 0.11801057 -0.027254319
0.0048967376 0.11606003 -0.02872031
0.01373814 0.114867 -0.026349744
0.0209438 0.11394212 -0.021313814
-0.011582799 0.12 -0.022460958
-0.0080350358 0.12 -0.025156358
0.0031251004 0.12 -0.02587655
0.014981147 0.12 -0.025366776
-0.024388142 0.0024075725 -0.015501489
-0.014194303 0 -0.01499371
-0.0079316823 0 -0.014326233
0.0030458816 0 -0.015048899
0.015582164 0 -0.016282979
0.02415535 0.0039414763 -0.016514968
-0.025327219 0.016538126 -0.015580126
0.026915986 0.014662227 -0.012977028
-0.025936879 0.02522831 -0.014383527
0.026287176 0.02440175 -0.014130307
-0.025399288 0.033139247 -0.015496125
0.024501069 0.036706142 -0.016830251
-0.025576487 0.042449117 -0.015259872
0.025140826 0.046491653 -0.015901491
-0.023778781 0.054974437 -0.018071486
0.025062783 0.054845553 -0.015946982
-0.026330832 0.065497085 -0.013793014
0.026032964 0.062337551 -0.014065876
-0.025346244 0.075602196 -0.015376828
0.026355309 0.074963994 -0.013785488
-0.026175128 0.085633621 -0.014004324
0.025424426 0.085088976 -0.015367948
-0.026672753 0.094078951 -0.013432759
0.02541008 0.095946833 -0.015465866
-0.025989251 0.10387097 -0.014545342
0.025845403 0.1051835 -0.014660805
-0.026162578 0.11511845 -0.014219956
-0.01293265 0.11999999 -0.01623496
0.0057800817 0.11999998 -0.017284736
0.01387525 0.11999999 -0.014196197
0.024789559 0.11631279 -0.015976697
-0.022981759 0.12 -0.017224429
-0.015090431 0.12 -0.016462067
-0.0066445614 0.12 -0.014249023
0.0084951799 0.12 -0.010894001
0.014881434 0.12 -0.015392226
0.02736957 0.12 -0.011368748
-0.02671076 0.0032195083 -0.0032345499
-0.017521417 0 -0.0055666207
-0.0060941093 0 -0.0017954987
0.0039804648 0 -0.0046722069
0.014264334 0 -0.0042707259
0.027379997 0.0028044698 -0.0047910684
-0.028968068 0.013932563 -0.006766445
0.029369686 0.013543583 -0.0051551987
-0.028989354 0.026102049 -0.0071900995
0.029785898 0.023623612 -0.0021755807
-0.029316412 0.032503683 -0.005034314
0.029246312 0.035498016 -0.005298459
-0.029285897 0.047461882 -0.0049425578
0.029261995 0.044258963 -0.0050686556
-0.028926471 0.05641178 -0.0072752731
0.029423332 0.055598732 -0.0048264344
-0.029130653 0.065427788 -0.0059855925
0.029339481 0.064464569 -0.0047014267
-0.029122842 0.076084271 -0.0063793492
0.029412704 0.075386874 -0.0048407102
-0.029207993 0.085587218 -0.0056375386
0.029412827 0.085887186 -0.0043225526
-0.029284213 0.097060494 -0.0049022771
0.02890962 0.095919751 -0.0069620451
-0.029103739 0.10632559 -0.0060270843
0.029383838 0.10645219 -0.0041542156
-0.02893417 0.11186451 -0.0067860195
-0.015788907 0.11999999 -0.0047259051
0.0092335967 0.11999999 -0.0004784934
0.017233104 0.11999999 -0.006599382
0.029049985 0.11729213 -0.0070595383
-0.024426939 0.12 -0.0044535343
-0.015173248 0.12 -0.0047754045
-0.0049584704 0.12 -0.0068415916
0.0053486219 0.12 -0.0055149035
0.014239556 0.12 -0.0061870338
0.025835693 0.12 -0.0040737782
-0.025913149 0.0016214054 0.0039288886
-0.015431714 0 0.0057213507
-0.0074559692 0 0.005185375
0.0041294913 0 0.0074236044
0.016713239 0 0.005717271
0.025880182 0.002000371 0.0056025051
-0.029304279 0.017139301 0.0048924005
0.029692335 0.014002846 0.0027043524
-0.029323623 0.025201745 0.0056612212
0.029662849 0.025182141 0.0026948976
-0.029096933 0.035150018 0.0063978061
0.029400731 0.035024788 0.0047856774
-0.028863221 0.04573999 0.0070978333
0.029364031 0.043163355 0.0059022582
-0.02925293 0.053878222 0.0055542574
0.02945921 0.051613212 0.0047809794
-0.029184576 0.064071007 0.0057769483
0.029238651 0.066020019 0.0057861293
-0.029184766 0.076072268 0.0056767184
0.029355546 0.075147532 0.0050356998
-0.029431645 0.085325226 0.0046160733
0.029160732 0.08250013 0.0052606519
-0.029288862 0.095600359 0.0057657966
0.029445056 0.096022129 0.0042390558
-0.029329903 0.10325346 0.0047605662
0.029323844 0.10504849 0.0048329611
-0.027727762 0.1172723 0.0055816662
-0.014061715 0.11999999 0.0089867506
-0.0028244932 0.11999999 0.0031127869
0.005128568 0.11999999 0.0035506794
0.013498288 0.11999999 0.0076240404
0.028195936 0.11647982 0.004850335
-0.023989178 0.12 0.0041218377
-0.014577216 0.12 0.0023736369
-0.0011774367 0.12 0.0047947243
0.005698286 0.12 0.0054998132
0.01566723 0.12 0.0031783322
0.025518378 0.12 0.0077095069
-0.024265854 0.0039275275 0.01680805
-0.014892709 0 0.014746156
-0.0060768966 0 0.012637533
0.0053632846 0 0.015805069
0.016895492 0 0.0144834
0.024649011 0.003788946 0.014599486
-0.024754802 0.016730169 0.016503159
0.02600624 0.013297798 0.014595142
-0.026409203 0.024395298 0.01376335
0.026039291 0.02397933 0.014388596
-0.025716096 0.033550385 0.014984803
0.024840292 0.035686601 0.016324697
-0.025234945 0.046582051 0.015909778
0.026044387 0.045135751 0.014351247
-0.024810469 0.054590773 0.016375372
0.025693605 0.055377934 0.014976252
-0.025405804 0.064259961 0.015322699
0.026487343 0.062078796 0.013353469
-0.02539479 0.076401047 0.015368376
0.02538765 0.074838787 0.015418575
-0.025027039 0.085882299 0.016289528
0.025537938 0.084823221 0.015030934
-0.026573354 0.096000358 0.013618717
0.025617046 0.095235348 0.015023258
-0.024805117 0.10473239 0.016390953
0.02689809 0.10607395 0.01273379
-0.025509497 0.11407199 0.015353351
-0.013149449 0.11999999 0.011455301
-0.0065359175 0.12 0.013741563
0.0060101817 0.11999999 0.013422905
0.017120447 0.11999999 0.012063147
0.02475841 0.1164175 0.014997791
-0.021579705 0.12 0.014294391
-0.014084318 0.12 0.017324924
-0.0065261959 0.12 0.014041086
0.0016244625 0.12 0.015844449
0.013411541 0.12 0.015580267
0.021954067 0.12 0.010733616
-0.021172827 0.0041395403 0.021109484
-0.014043415 0.0020839185 0.025208956
-0.0080956342 0.0026888752 0.027406141
0.0047055739 0.0030922161 0.027388761
0.016297687 0.0042016162 0.024917236
0.020506803 0.0012890983 0.021792591
-0.021662191 0.015296237 0.020665687
-0.016174674 0.015527276 0.025028415
-0.0026581062 0.016880376 0.029738411
0.0044537811 0.014635186 0.02950725
0.014958508 0.015485914 0.025572818
0.02114737 0.015847456 0.021266866
-0.021287512 0.02113115 0.021122212
-0.014385511 0.02655071 0.026038488
-0.0047979024 0.024532855 0.029428365
0.0055402978 0.021512648 0.029252052
0.014934461 0.02488178 0.025703767
0.021268427 0.025425367 0.021046422
-0.015982127 0.035661671 0.025089914
-0.0050404603 0.032918781 0.029195696
0.0052544689 0.035760447 0.029322386
0.013709958 0.036306217 0.026299702
0.022082306 0.036432866 0.020153804
-0.020919785 0.043118443 0.021412373
-0.014694838 0.046634573 0.025758402
-0.0044022738 0.044814043 0.029506959
0.0058522476 0.04386558 0.029148202
0.012556627 0.044210076 0.027100945
0.021321241 0.044743277 0.020996843
-0.020463623 0.057736024 0.021828031
-0.017136961 0.055137027 0.024461638
-0.0038774812 0.05385758 0.029486675
0.0045521781 0.054225732 0.029388469
0.013525705 0.05497285 0.026525388
-0.015416881 0.064259157 0.025333505
-0.0044356491 0.064192668 0.029470935
0.0033186893 0.066064693 0.029578008
0.015681669 0.066089138 0.02524201
0.021252677 0.06319014 0.021022161
-0.021907507 0.071886249 0.020366788
-0.014699496 0.073323004 0.025932642
-0.0053434302 0.074476749 0.029330701
0.003622931 0.077406444 0.029588263
0.01438705 0.075299129 0.02588319
0.021423705 0.072486475 0.020956267
-0.021349177 0.084613301 0.020966116
-0.014869438 0.083463088 0.025717376
-0.003700518 0.085081622 0.02959225
0.006254096 0.084867164 0.029133175
0.014417568 0.085421965 0.026142266
0.021041742 0.082990557 0.021317745
-0.020851828 0.097658247 0.021503495
-0.015795955 0.096409254 0.025189344
-0.0055780751 0.094523177 0.029153476
0.0043016383 0.093681887 0.029372698
0.014008653 0.094231971 0.02630488
-0.020709777 0.10506535 0.021554768
-0.014524234 0.10525848 0.025876286
-0.0044730729 0.10594119 0.029327
0.0034638024 0.10771258 0.029659122
0.015511567 0.10436585 0.025434194
0.020836148 0.1011259 0.021522291
-0.020813389 0.11304045 0.02154097
-0.01447841 0.11531885 0.025803939
-0.004405776 0.11489213 0.028884057
0.0038717331 0.11521042 0.029306499
0.016446412 0.11464813 0.024639279
0.020813733 0.11765771 0.021511246
-0.013696395 0.12 0.022141233
-0.0017506642 0.12 0.022182845
0.0051296307 0.12 0.026333217
0.017855382 0.12 0.021604203
